ply
format ascii 1.0
comment Created by CloudCompare v2.14.alpha (Nov 11 2011)
comment Created 2025-12-04T17:08:46
obj_info Generated by CloudCompare!
element vertex 978
property float x
property float y
property float z
property float intensity
end_header
-0.000796 -0.000001 -1.000000 26.422253 
-0.105599 -0.000168 -0.994409 26.417818 
-0.209238 -0.000333 -0.977865 26.405491 
-0.310573 -0.000495 -0.950549 26.403938 
-0.408487 -0.000651 -0.912764 26.202473 
-0.501901 -0.000799 -0.864925 26.217690 
-0.589787 -0.000939 -0.807558 26.052641 
-0.671177 -0.001069 -0.741297 25.676537 
-0.745173 -0.001187 -0.666870 25.276905 
-0.810962 -0.001292 -0.585097 24.979815 
-0.867818 -0.001382 -0.496880 24.520603 
-0.915115 -0.001457 -0.403190 25.338799 
-0.952332 -0.001517 -0.305059 25.012825 
-0.979060 -0.001559 -0.203567 25.343185 
-0.995003 -0.001585 -0.099833 24.596073 
-0.999986 -0.001593 0.005000 25.128361 
-0.993955 -0.001583 0.109778 25.945358 
-0.976975 -0.001556 0.213347 26.039070 
-0.949234 -0.001512 0.314567 25.375935 
-0.911038 -0.001451 0.412321 27.059444 
-0.862806 -0.001374 0.505533 27.671892 
-0.805071 -0.001282 0.593177 27.802170 
-0.738468 -0.001176 0.674288 29.386650 
-0.663730 -0.001057 0.747971 29.935658 
-0.581682 -0.000926 0.813416 31.063490 
-0.493227 -0.000786 0.869900 31.448479 
-0.399339 -0.000636 0.916803 31.727386 
-0.301052 -0.000479 0.953607 31.672451 
-0.199449 -0.000318 0.979908 31.544752 
-0.095650 -0.000152 0.995415 31.466280 
-0.994303 -0.091326 -0.054972 24.831270 
-0.994564 -0.091350 0.049979 25.128361 
-0.889437 -0.108685 -0.443948 23.593395 
-0.930724 -0.113730 -0.347590 23.890486 
-0.961759 -0.117523 -0.247404 24.336121 
-0.978308 -0.119545 0.169182 25.103603 
-0.955319 -0.116736 0.271547 21.860371 
-0.921808 -0.112641 0.370920 25.375935 
-0.879897 -0.111987 0.461779 27.207991 
-0.827041 -0.105260 0.552199 28.438118 
-0.839364 -0.115369 -0.531186 24.633209 
-0.775978 -0.110613 -0.620986 25.375935 
-0.762974 -0.112655 0.636537 27.703140 
-0.688717 -0.105212 0.717356 29.683741 
-0.709127 -0.111961 -0.696135 25.326420 
-0.634798 -0.113281 -0.764329 25.698788 
-0.580616 -0.103612 0.807558 31.119675 
-0.972513 -0.178568 -0.149438 24.595139 
-0.983508 -0.180587 -0.010000 25.920601 
-0.525762 -0.104713 -0.844162 25.809191 
-0.971789 -0.208748 0.109778 26.118660 
-0.494930 -0.106315 0.862404 31.565310 
-0.436091 -0.107455 -0.893464 26.201185 
-0.894312 -0.220363 -0.389418 23.791454 
-0.929015 -0.228914 -0.290740 23.791454 
-0.945389 -0.232949 0.227978 22.653549 
-0.916983 -0.225950 0.328769 25.078846 
-0.848700 -0.213631 0.483807 27.455564 
-0.399523 -0.104825 0.910710 31.515795 
-0.838295 -0.224435 -0.496880 23.713808 
-0.960986 -0.267609 -0.069943 25.276905 
-0.777316 -0.220656 -0.589145 24.880785 
-0.780140 -0.221457 0.585097 27.901199 
-0.622184 -0.183361 0.761095 30.129375 
-0.342075 -0.104541 -0.933839 28.000231 
-0.711541 -0.221348 -0.666870 25.128361 
-0.936768 -0.291412 -0.193767 23.915243 
-0.953671 -0.296670 0.049979 25.722540 
-0.711541 -0.221348 0.666870 26.910900 
-0.867710 -0.284272 0.407760 26.514780 
-0.638112 -0.219705 -0.737931 25.524481 
-0.931895 -0.320856 0.169182 25.730793 
-0.302628 -0.104196 0.947396 31.614824 
-0.848938 -0.306612 -0.430458 23.543880 
-0.806151 -0.300305 0.509841 27.587317 
-0.881791 -0.333513 -0.333487 23.824465 
-0.896279 -0.338993 0.285952 21.365221 
-0.500428 -0.203713 -0.841471 26.077398 
-0.917655 -0.378916 -0.119712 25.375935 
-0.924198 -0.381618 -0.014999 25.673025 
-0.786354 -0.329311 -0.522687 25.298727 
-0.517612 -0.216767 0.827702 31.438066 
-0.241779 -0.102677 -0.964884 26.442951 
-0.884073 -0.396493 -0.247404 26.316721 
-0.907880 -0.407170 0.099833 26.564295 
-0.726377 -0.325769 0.605186 27.777412 
-0.843740 -0.383483 0.375559 27.034687 
-0.636069 -0.292942 0.713864 27.422556 
-0.672245 -0.313686 -0.670587 25.623510 
-0.879038 -0.426352 0.213347 26.947716 
-0.426998 -0.209747 0.879590 31.466280 
-0.204301 -0.102903 0.973485 31.664341 
-0.815228 -0.415743 -0.403190 26.106281 
-0.579732 -0.299308 -0.757843 26.149626 
-0.781992 -0.413689 0.466208 27.257505 
-0.395949 -0.212005 -0.893464 26.787113 
-0.710427 -0.384971 -0.589145 25.300137 
-0.830014 -0.460570 -0.314567 26.390993 
-0.857087 -0.481213 -0.183947 27.480370 
-0.869177 -0.488001 -0.079915 26.887737 
-0.871693 -0.489414 0.024997 26.603676 
-0.750259 -0.431158 -0.501213 25.777180 
-0.825912 -0.480143 0.295520 27.286659 
-0.848505 -0.510458 0.139543 27.157806 
-0.705085 -0.428992 0.564642 27.314873 
-0.532749 -0.327800 0.780209 29.569609 
-0.641884 -0.403854 0.651834 27.802170 
-0.468906 -0.308281 -0.827702 26.118660 
-0.761259 -0.511463 -0.398609 26.366236 
-0.766137 -0.514740 0.384808 27.505079 
-0.591008 -0.401381 -0.699716 26.019630 
-0.793457 -0.544691 -0.271547 26.960415 
-0.816934 -0.560807 -0.134590 28.322077 
-0.824064 -0.565702 -0.029996 26.910900 
-0.309164 -0.214516 0.926499 31.169189 
-0.636943 -0.451451 -0.624897 25.573996 
-0.715979 -0.507470 0.479426 27.356535 
-0.561441 -0.406432 0.720831 27.406050 
-0.803822 -0.588041 0.089879 26.960415 
-0.791792 -0.579241 0.193767 26.960415 
-0.691232 -0.516366 -0.505533 26.516075 
-0.143516 -0.108332 -0.983701 26.400026 
-0.421275 -0.324659 0.846832 28.990530 
-0.274843 -0.214009 -0.937369 26.539537 
-0.747262 -0.587888 0.309816 27.108959 
-0.507776 -0.403606 -0.761095 25.821569 
-0.639396 -0.508224 0.576959 27.257505 
-0.727414 -0.602312 -0.328769 27.505079 
-0.755634 -0.625678 -0.193767 27.529837 
-0.767114 -0.635184 -0.089879 26.811871 
-0.688135 -0.587406 0.425939 27.356535 
-0.564405 -0.491629 0.663135 27.703140 
-0.674374 -0.593374 -0.439462 26.019630 
-0.750520 -0.660375 0.024997 27.009930 
-0.725355 -0.651217 0.223106 27.076237 
-0.456695 -0.410016 0.789504 28.661583 
-0.526810 -0.482565 -0.699716 26.217690 
-0.600149 -0.549745 -0.581035 25.623510 
-0.349191 -0.323090 -0.879590 26.406511 
-0.413094 -0.397842 -0.819192 26.524775 
-0.685015 -0.679822 -0.261909 27.373039 
-0.704688 -0.699345 0.119712 27.901199 
-0.669160 -0.664087 0.333487 27.207991 
-0.610612 -0.605982 0.509841 27.315273 
-0.563643 -0.570670 0.597195 27.505079 
-0.680615 -0.717239 -0.149438 26.712841 
-0.687647 -0.724650 -0.044985 26.712841 
-0.464614 -0.494544 0.734548 29.287621 
-0.307526 -0.327337 0.893464 27.950716 
-0.627800 -0.681778 -0.375559 26.258953 
-0.579563 -0.635743 -0.509841 25.847946 
-0.515172 -0.582423 -0.628793 26.102156 
-0.644991 -0.736578 0.203567 27.451626 
-0.596038 -0.680672 0.425939 27.653625 
-0.187803 -0.216646 0.958016 30.276375 
-0.642957 -0.764580 0.044985 28.841986 
-0.414983 -0.498521 -0.761095 26.118660 
-0.344156 -0.421948 0.838759 28.297319 
-0.594279 -0.736090 0.324043 26.985172 
-0.463886 -0.574583 0.674288 27.604111 
-0.593563 -0.750435 -0.290740 26.858910 
-0.522275 -0.667135 0.531186 27.600685 
-0.252986 -0.326505 -0.910710 26.063828 
-0.084278 -0.112206 0.990105 30.886772 
-0.527759 -0.710015 -0.466208 25.994873 
-0.587957 -0.791002 -0.169182 26.843796 
-0.595297 -0.800876 -0.064954 27.117212 
-0.304072 -0.431188 -0.849481 26.613810 
-0.477269 -0.676790 -0.560509 25.326420 
-0.560468 -0.794770 0.232843 27.375296 
-0.569899 -0.816785 0.089879 27.694273 
-0.506506 -0.733720 0.452886 27.802170 
-0.385493 -0.558422 0.734548 29.493933 
-0.405799 -0.600595 -0.688921 26.217690 
-0.148649 -0.222394 -0.963558 26.432354 
-0.509065 -0.769919 -0.384808 26.256742 
-0.499251 -0.797729 0.338197 27.455564 
-0.420721 -0.672249 0.609159 28.066250 
-0.498693 -0.814845 -0.295520 26.861385 
-0.521904 -0.852770 -0.019999 27.257505 
-0.189972 -0.324823 0.926499 28.297319 
-0.303227 -0.524472 0.795602 28.513346 
-0.302571 -0.529429 -0.792563 26.257301 
-0.487722 -0.853400 -0.183947 27.888821 
-0.229647 -0.406534 0.884303 27.884695 
-0.423046 -0.757722 -0.496880 25.842230 
-0.410596 -0.744138 0.526943 27.414288 
-0.475284 -0.871650 0.119712 27.207991 
-0.466120 -0.854844 0.227978 27.381626 
-0.364872 -0.693718 -0.620986 25.951807 
-0.329400 -0.633950 0.699716 30.025156 
-0.419690 -0.817686 -0.394019 27.059444 
-0.413137 -0.804918 0.425939 27.406050 
-0.441236 -0.892364 -0.094857 27.059444 
-0.293096 -0.632056 -0.717356 26.078238 
-0.327116 -0.705418 0.628793 27.777412 
-0.398170 -0.870018 -0.290740 27.257505 
-0.416064 -0.909116 0.019999 27.207991 
-0.197617 -0.437569 -0.877200 26.316721 
-0.390048 -0.863657 0.319309 27.356535 
-0.380043 -0.913613 0.144492 27.504316 
-0.134071 -0.331616 -0.933839 26.349730 
-0.317569 -0.785488 0.531186 27.439060 
-0.307598 -0.771910 -0.556361 25.590590 
-0.329142 -0.838135 -0.434966 26.910900 
-0.354379 -0.915832 -0.188859 29.163832 
-0.228537 -0.590615 0.773915 30.426950 
-0.319528 -0.850953 0.416871 27.026436 
-0.210125 -0.568213 -0.795602 26.353937 
-0.331801 -0.940369 -0.074930 28.148775 
-0.249822 -0.719473 -0.648034 25.722540 
-0.234342 -0.674893 0.699716 31.416765 
-0.167461 -0.482279 0.859862 28.676935 
-0.057280 -0.170446 -0.983701 26.470291 
-0.309424 -0.920736 0.237703 27.289907 
-0.091334 -0.271779 0.958016 28.326204 
-0.295319 -0.893538 -0.338197 27.059444 
-0.308673 -0.949854 0.049979 27.406050 
-0.273378 -0.902248 0.333487 27.257505 
-0.222365 -0.761235 0.609159 29.386650 
-0.187681 -0.667217 -0.720831 25.920601 
-0.224651 -0.830418 -0.509841 27.191988 
-0.105480 -0.389903 0.914795 28.225309 
-0.224317 -0.845939 0.483807 27.389545 
-0.228055 -0.877727 -0.421410 30.698797 
-0.248460 -0.956261 0.154380 27.511644 
-0.238657 -0.937771 -0.252245 33.001244 
-0.243863 -0.958227 -0.149438 33.760208 
-0.120125 -0.526779 -0.841471 26.376541 
-0.212439 -0.976548 -0.034993 28.346834 
-0.158949 -0.767536 -0.620986 25.970116 
-0.202359 -0.977155 0.064954 28.049746 
-0.129110 -0.639535 0.757843 32.209003 
-0.181756 -0.949144 0.257081 27.331778 
-0.172862 -0.902700 0.394019 27.059444 
-0.135876 -0.729281 0.670587 31.961430 
-0.077659 -0.428705 -0.900100 26.811871 
-0.153835 -0.928417 -0.338197 31.537596 
-0.132170 -0.823169 0.552199 29.338419 
-0.090271 -0.562216 0.822049 30.867922 
-0.088764 -0.611274 -0.786425 26.478207 
-0.128767 -0.886752 -0.443948 30.002460 
-0.036436 -0.269865 -0.962209 26.516048 
-0.064241 -0.475807 0.877200 28.904013 
-0.125452 -0.965551 -0.227978 33.034256 
-0.127839 -0.983927 -0.124675 32.481339 
-0.086754 -0.694890 -0.713864 26.168175 
-0.104299 -0.835415 -0.539632 29.931040 
-0.112589 -0.981575 0.154380 27.517849 
-0.103951 -0.993967 0.034993 27.653625 
-0.080217 -0.896867 0.434966 27.207991 
-0.080712 -0.956262 0.281157 27.455564 
-0.017186 -0.203623 0.978899 28.215879 
-0.045634 -0.769895 -0.636537 26.316721 
-0.045944 -0.932993 -0.356949 30.376949 
-0.038855 -0.789036 0.613117 31.243464 
-0.033912 -0.688664 0.724287 31.738613 
-0.037787 -0.854292 0.518418 27.703140 
-0.039083 -0.996423 -0.074930 28.445866 
-0.013481 -0.556859 -0.830497 26.663324 
-0.016616 -0.865164 -0.501213 27.689209 
-0.013920 -0.979968 0.198669 27.593910 
-0.008929 -0.970096 -0.242556 30.426466 
-0.003335 -0.362342 0.932039 28.346834 
-0.004188 -0.996381 0.084898 27.703140 
0.010085 -0.934069 0.356949 27.703140 
0.015108 -0.585548 0.810497 31.720322 
0.019855 -0.644521 -0.764329 26.118660 
0.012801 -0.357464 -0.933839 26.501732 
0.031989 -0.893249 0.448423 27.653625 
0.037151 -0.730745 -0.681639 25.986620 
0.050774 -0.998710 0.000000 27.554596 
0.049626 -0.815264 -0.576959 25.797625 
0.059983 -0.985403 -0.159318 32.955589 
0.059626 -0.904908 -0.421410 26.514780 
0.053874 -0.759704 0.648034 31.708954 
0.036968 -0.456552 -0.888928 26.415751 
0.076861 -0.949227 -0.305059 30.525496 
0.066839 -0.825447 0.560509 27.543938 
0.083132 -0.966569 0.242556 27.554596 
0.089964 -0.988111 0.124675 27.505079 
0.041128 -0.451728 0.891207 28.742954 
0.080496 -0.692041 0.717356 31.717192 
0.117485 -0.859830 -0.496880 25.717638 
0.126938 -0.929014 0.347590 27.653625 
0.145164 -0.988599 -0.039989 27.554596 
0.146605 -0.964823 -0.218230 31.730125 
0.138942 -0.856624 0.496880 27.673868 
0.129360 -0.773073 -0.620986 25.524481 
0.116575 -0.675889 -0.727726 26.217690 
0.156217 -0.905729 -0.394019 27.950716 
0.111774 -0.611478 0.783327 32.074299 
0.106701 -0.567668 -0.816314 26.415751 
0.194071 -0.978491 0.069943 27.521585 
0.191047 -0.963241 0.188859 27.661144 
0.153093 -0.771881 0.617059 30.376949 
0.212455 -0.969185 -0.124675 30.909830 
0.210247 -0.894732 0.394019 27.950716 
0.222482 -0.925981 -0.305059 28.041492 
0.200127 -0.814980 -0.543835 26.610435 
0.229189 -0.933327 0.276356 27.901199 
0.072344 -0.282382 0.956570 28.015543 
0.020421 -0.078082 0.996738 30.973194 
0.066487 -0.249131 -0.966185 26.593969 
0.267445 -0.963365 -0.019999 27.307020 
0.142272 -0.512479 0.846832 31.713856 
0.229993 -0.812670 0.535416 28.066149 
0.190697 -0.673820 0.713864 31.911915 
0.041654 -0.139181 -0.989391 26.569193 
0.289740 -0.950789 0.109778 27.484539 
0.264155 -0.851538 -0.452886 26.861385 
0.289459 -0.933111 -0.213347 32.035141 
0.216129 -0.684605 -0.696135 26.069145 
0.125446 -0.383945 -0.914795 26.659246 
0.167510 -0.495835 -0.852108 26.415751 
0.125223 -0.364640 0.922690 28.124018 
0.262326 -0.751621 -0.605186 25.706036 
0.308974 -0.885277 0.347590 27.802170 
0.211669 -0.596868 -0.773915 26.078846 
0.316617 -0.878829 -0.356949 27.356535 
0.334984 -0.915429 0.223106 27.675453 
0.306384 -0.837271 0.452886 27.752655 
0.346232 -0.931704 -0.109778 29.733255 
0.273034 -0.734730 0.620986 29.287621 
0.222195 -0.588888 0.777072 31.583673 
0.357622 -0.933652 0.019999 27.158476 
0.324748 -0.788249 -0.522687 26.985147 
0.359584 -0.825533 -0.434966 27.158476 
0.385918 -0.885989 -0.257081 27.207991 
0.334033 -0.766872 0.548024 27.939669 
0.400243 -0.906472 0.134590 27.257505 
0.304815 -0.646131 0.699716 31.268221 
0.305102 -0.630327 -0.713864 25.871084 
0.410742 -0.848574 0.333487 27.554596 
0.245189 -0.500157 0.830497 31.464853 
0.443750 -0.882753 -0.154380 30.479097 
0.397338 -0.790425 0.466208 27.257505 
0.359027 -0.696761 -0.620986 25.821569 
0.457840 -0.888528 -0.029996 27.059444 
0.272768 -0.522922 -0.807558 26.197525 
0.437799 -0.829164 -0.347590 27.257505 
0.454617 -0.861017 0.227978 27.545807 
0.371817 -0.679321 0.632673 29.683741 
0.230419 -0.411166 0.881958 29.535194 
0.249732 -0.435361 -0.864925 26.415751 
0.493372 -0.860104 0.129634 27.406050 
0.434308 -0.748440 -0.501213 26.451614 
0.495280 -0.834185 -0.242556 26.811871 
0.335476 -0.546199 0.767543 30.921616 
0.442775 -0.712878 0.543835 28.126028 
0.503163 -0.801139 0.324043 27.752655 
0.108684 -0.173047 0.978899 27.807560 
0.218238 -0.339886 -0.914795 26.684828 
0.488839 -0.761322 0.425939 27.752655 
0.539549 -0.831127 -0.134590 26.866161 
0.544394 -0.838591 0.019999 27.059444 
0.405190 -0.617379 -0.674288 26.333225 
0.510083 -0.752353 -0.416871 25.970116 
0.200726 -0.296063 0.933839 27.950716 
0.463347 -0.676116 -0.572867 26.056084 
0.551674 -0.805004 0.218230 27.400652 
0.378514 -0.540653 -0.751280 26.688082 
0.550297 -0.769526 -0.324043 26.613810 
0.419616 -0.586784 0.692537 29.807528 
0.593885 -0.796325 0.114747 27.307020 
0.598953 -0.770475 -0.218230 26.744162 
0.611783 -0.786979 -0.079915 26.943911 
0.351995 -0.452796 0.819192 29.853132 
0.361805 -0.460643 -0.810497 26.663324 
0.534498 -0.680512 0.501213 27.962299 
0.590054 -0.743562 0.314567 27.467943 
0.492967 -0.621216 0.609159 28.455940 
0.197240 -0.246017 -0.948985 26.635359 
0.552700 -0.675430 -0.488177 26.100319 
0.655923 -0.754231 0.029996 27.020502 
0.641110 -0.737198 0.213347 27.329206 
0.498349 -0.567287 -0.655617 26.514780 
0.616066 -0.687303 -0.384808 26.712841 
0.606701 -0.676855 0.416871 27.781294 
0.553161 -0.604844 -0.572867 26.217690 
0.447936 -0.489788 0.747971 30.659412 
0.325792 -0.352674 -0.877200 26.712841 
0.671918 -0.727361 -0.139543 26.844759 
0.328764 -0.355891 0.874789 28.891500 
0.662154 -0.688636 -0.295520 26.651295 
0.575934 -0.598967 0.556361 27.522573 
0.453858 -0.458055 -0.764329 26.613810 
0.524487 -0.529337 0.666870 31.416765 
0.701419 -0.700861 0.129634 27.356535 
0.672582 -0.672047 0.309816 27.604111 
0.633809 -0.596402 -0.492535 26.210859 
0.731460 -0.681426 0.024997 27.108959 
0.428488 -0.387337 0.816314 30.615042 
0.667715 -0.597550 0.443948 27.703140 
0.220781 -0.197581 0.955101 28.469015 
0.298905 -0.264816 -0.916803 26.571785 
0.737067 -0.653007 -0.174108 26.910900 
0.692459 -0.607333 -0.389418 26.465265 
0.735209 -0.638353 0.227978 27.430807 
0.584884 -0.502724 -0.636537 26.415751 
0.434180 -0.362010 -0.824886 26.712841 
0.742267 -0.612619 -0.271547 26.564295 
0.769858 -0.635392 -0.059964 26.531284 
0.726131 -0.593224 0.347590 28.000231 
0.649886 -0.530934 0.543835 27.425758 
0.782161 -0.613330 0.109778 27.009930 
0.542578 -0.425461 0.724287 32.258518 
0.307017 -0.240747 0.920751 28.941015 
0.169157 -0.131284 -0.976806 26.629099 
0.621508 -0.472473 0.624897 31.812885 
0.546287 -0.402505 -0.734548 26.762356 
0.684231 -0.504142 -0.526943 26.655073 
0.801448 -0.572161 -0.174108 26.745850 
0.718735 -0.507705 0.475032 27.703140 
0.745032 -0.520717 -0.416871 26.415751 
0.802678 -0.555053 0.218230 27.331778 
0.394903 -0.273076 0.877200 28.594410 
0.780802 -0.534176 -0.324043 26.514780 
0.825294 -0.564614 -0.010000 26.663324 
0.794000 -0.520204 0.314567 27.356535 
0.402917 -0.261108 -0.877200 26.415751 
0.510041 -0.326920 0.795602 31.466280 
0.642526 -0.402831 -0.651834 26.498276 
0.854237 -0.512055 0.089879 27.307020 
0.840086 -0.492221 -0.227978 26.663324 
0.714183 -0.413669 0.564642 30.799355 
0.633148 -0.366732 0.681639 31.763371 
0.501260 -0.287002 -0.816314 26.663324 
0.769926 -0.435733 -0.466208 26.366236 
0.868455 -0.491495 -0.064954 26.910900 
0.280111 -0.154849 -0.947396 26.758633 
0.800886 -0.442740 0.403190 27.356535 
0.723776 -0.390715 -0.568762 26.514780 
0.579003 -0.308833 -0.754571 26.553766 
0.822623 -0.438777 -0.361615 26.316721 
0.869314 -0.452574 0.198669 27.267456 
0.856032 -0.424120 0.295520 27.320225 
0.897711 -0.439193 0.034993 27.125465 
0.902429 -0.413873 -0.119712 27.075951 
0.105259 -0.047639 -0.993303 26.694344 
0.493344 -0.220314 0.841471 28.693439 
0.800886 -0.352862 0.483807 27.185732 
0.667913 -0.290296 -0.685289 26.514780 
0.883894 -0.384168 -0.266731 26.333225 
0.629024 -0.273394 0.727726 31.796381 
0.196803 -0.084369 0.976806 28.557274 
0.754946 -0.319186 0.572867 31.528561 
0.696948 -0.290566 0.655617 31.936672 
0.832832 -0.342340 -0.434966 26.283710 
0.394622 -0.162211 0.904412 28.346834 
0.786816 -0.314264 -0.531186 26.351444 
0.857154 -0.342358 0.384808 27.207991 
0.923248 -0.363415 0.124675 27.219574 
0.380844 -0.147715 -0.912764 26.613810 
0.932141 -0.361543 -0.019999 26.834110 
0.473770 -0.178328 -0.862404 26.514780 
0.914012 -0.338829 0.223106 27.358694 
0.929165 -0.328680 -0.169182 26.613060 
0.561777 -0.192423 -0.804599 26.491137 
0.750257 -0.256982 -0.609159 26.485666 
0.891811 -0.300494 -0.338197 26.267204 
0.579787 -0.188923 0.792563 28.921059 
0.652751 -0.198349 -0.731146 26.381950 
0.955897 -0.285252 0.069943 26.976919 
0.320281 -0.095576 0.942489 28.396351 
0.853420 -0.250031 0.457338 27.207991 
0.958702 -0.275679 -0.069943 26.613810 
0.913568 -0.257762 0.314567 27.356535 
0.805033 -0.227139 0.548024 30.052719 
0.854860 -0.236589 -0.461779 26.613810 
0.734786 -0.187622 0.651834 31.713856 
0.939978 -0.235016 -0.247404 26.613810 
0.955645 -0.233862 0.179030 27.562847 
0.804432 -0.171459 -0.568762 26.712841 
0.730321 -0.148043 -0.666870 26.465265 
0.979871 -0.198630 0.019999 27.307020 
0.675754 -0.136982 0.724287 30.129375 
0.496130 -0.100570 0.862404 28.000231 
0.909233 -0.179583 -0.375559 27.307020 
0.243709 -0.046870 -0.968715 26.633865 
0.975518 -0.187611 -0.114747 27.059444 
0.615965 -0.108908 -0.780209 26.669462 
0.906993 -0.160364 0.389418 27.307020 
0.945828 -0.162358 0.281157 27.554596 
0.867062 -0.135481 0.479426 27.719645 
0.461670 -0.069775 -0.884303 26.443737 
0.808202 -0.118018 0.576959 29.139074 
0.978345 -0.137870 0.154380 28.947290 
0.867212 -0.117790 -0.483807 27.505079 
0.608162 -0.082604 0.789504 28.396351 
0.952946 -0.124586 -0.276356 27.356535 
0.350481 -0.042261 -0.935616 26.589052 
0.993645 -0.109744 -0.024997 29.287621 
0.754573 -0.075710 0.651834 29.980829 
0.798849 -0.072091 -0.597195 27.009930 
0.981434 -0.068813 -0.179030 28.594410 
0.967761 -0.067854 0.242556 29.386650 
0.917161 -0.059700 -0.394019 27.158476 
0.684634 -0.041127 -0.727726 26.267204 
0.935959 -0.056225 0.347590 28.841986 
0.407977 -0.020416 0.912764 28.301716 
0.897352 -0.040408 0.439462 28.016735 
0.996753 -0.039891 0.069943 28.544895 
0.836086 -0.025090 0.548024 27.530382 
0.877407 -0.017550 -0.479426 27.207991 
0.997351 -0.019950 -0.069943 28.056347 
0.552801 -0.008293 -0.833272 26.613810 
0.667388 -0.010012 0.744643 28.024988 
0.955289 -0.009553 -0.295520 27.604111 
0.519073 0.005191 0.854714 28.099260 
0.257821 0.003868 0.966185 29.598537 
0.825078 0.020631 -0.564642 26.960415 
0.985277 0.024637 0.169182 28.706036 
0.738136 0.022151 0.674288 27.851685 
0.981219 0.039270 -0.188859 27.803011 
0.105515 0.004223 0.994409 30.499376 
0.754329 0.033968 -0.655617 26.910900 
0.998551 0.049969 0.019999 28.399714 
0.931162 0.046597 0.361615 28.726450 
0.916852 0.064285 -0.394019 27.369593 
0.882188 0.066288 0.466208 27.873331 
0.425119 0.036222 -0.904412 26.732647 
0.653849 0.055711 -0.754571 26.192932 
0.992307 0.094554 -0.079915 27.554596 
0.953457 0.095665 -0.285952 27.529837 
0.967158 0.101926 0.232843 28.827633 
0.800638 0.084377 0.593177 27.637119 
0.869394 0.100423 -0.483807 27.244875 
0.596756 0.078018 0.798621 28.298557 
0.984056 0.143697 0.104807 28.396351 
0.971899 0.146888 -0.183947 28.148775 
0.677646 0.105884 0.727726 28.099260 
0.916803 0.147953 0.370920 28.990530 
0.790533 0.135700 -0.597195 27.284018 
0.984714 0.174106 0.005000 29.188591 
0.539825 0.098232 -0.836026 26.316721 
0.719867 0.130994 -0.681639 26.143417 
0.351914 0.064038 0.933839 30.302677 
0.458945 0.085887 0.884303 29.782770 
0.924140 0.177730 -0.338197 27.752655 
0.859425 0.165284 0.483807 28.070068 
0.276302 0.056009 -0.959437 26.702347 
0.736820 0.149361 0.659385 27.946281 
0.948824 0.202235 0.242556 28.643925 
0.971948 0.217346 -0.089879 28.346834 
0.871292 0.199417 -0.448423 26.613810 
0.944640 0.231169 -0.232843 27.703140 
0.645879 0.168364 -0.744643 25.958668 
0.963300 0.251108 0.094857 27.785666 
0.789322 0.209977 0.576959 27.802170 
0.904916 0.245578 0.347590 28.495380 
0.800081 0.234404 -0.552199 26.638260 
0.595654 0.177751 0.783327 30.747465 
0.172045 0.052279 -0.983701 26.718037 
0.896218 0.287083 -0.338197 27.505079 
0.942340 0.301857 -0.144492 28.235615 
0.730263 0.237956 -0.640385 26.514780 
0.950785 0.309813 -0.005000 28.313826 
0.931245 0.308605 0.193767 28.445866 
0.847031 0.285405 0.448423 26.795364 
0.669219 0.229224 0.706825 30.228405 
0.355379 0.123715 -0.926499 26.613810 
0.446890 0.163128 -0.879590 26.910900 
0.549220 0.203599 -0.810497 26.601431 
0.910173 0.342592 -0.232843 27.703140 
0.837024 0.319845 -0.443948 26.663324 
0.732232 0.288226 0.617059 27.752655 
0.490954 0.193253 0.849481 31.367250 
0.923047 0.374039 0.089879 28.891500 
0.885404 0.358785 0.295520 28.643925 
0.917449 0.393310 -0.059964 28.000231 
0.776263 0.332784 0.535416 27.789968 
0.648760 0.281972 -0.706825 26.415751 
0.757852 0.333901 -0.560509 26.811871 
0.182520 0.080416 0.979908 29.436165 
0.388704 0.175921 0.904412 31.367250 
0.829892 0.385640 0.403190 29.106066 
0.845150 0.397880 -0.356949 27.108959 
0.886717 0.417449 0.198669 28.807917 
0.575782 0.281694 0.767543 31.786726 
0.869756 0.447291 -0.208460 28.561895 
0.888748 0.457058 0.034993 28.507759 
0.644591 0.331495 0.688921 31.070160 
0.681465 0.367874 -0.632673 27.207991 
0.774345 0.418013 -0.475032 26.523033 
0.874650 0.472161 -0.109778 27.795527 
0.833458 0.460746 0.305059 29.070984 
0.699352 0.386610 0.601198 27.505079 
0.531089 0.307617 -0.789504 26.613810 
0.825536 0.483695 -0.290740 27.445099 
0.450235 0.266833 -0.852108 26.192932 
0.752885 0.446200 0.483807 27.995497 
0.271262 0.160764 0.948985 30.723555 
0.845331 0.518277 0.129634 28.445866 
0.247747 0.153605 -0.956570 26.826532 
0.844420 0.535309 -0.019999 27.703140 
0.699645 0.453402 -0.552199 27.550165 
0.772947 0.500905 -0.389418 27.059444 
0.585762 0.383773 -0.713864 29.337135 
0.768795 0.503690 0.394019 28.297319 
0.471297 0.312158 0.824886 31.705282 
0.339429 0.227266 -0.912764 26.960415 
0.810483 0.554481 -0.188859 27.864063 
0.573043 0.396260 0.717356 31.466280 
0.793363 0.560422 0.237703 29.432762 
0.669317 0.482902 0.564642 27.717056 
0.626002 0.461239 -0.628793 27.307020 
0.771455 0.568409 -0.285952 27.307020 
0.702411 0.533976 -0.470626 26.465265 
0.385706 0.293215 0.874789 31.770418 
0.792057 0.608398 0.049979 28.693439 
0.603994 0.463943 0.648034 30.475981 
0.695168 0.539524 0.475032 27.851685 
0.782986 0.613976 -0.099833 28.297319 
0.774425 0.613541 0.154380 28.951218 
0.719176 0.587541 0.370920 28.693439 
0.471390 0.393034 -0.789504 27.052349 
0.740042 0.642549 -0.198669 27.602772 
0.695352 0.609871 -0.380188 27.108959 
0.724568 0.635496 0.266731 28.445866 
0.545111 0.482943 -0.685289 27.274010 
0.357791 0.326695 -0.874789 26.663324 
0.613624 0.560293 -0.556361 28.114738 
0.467664 0.427019 0.773915 31.845896 
0.601816 0.560649 0.568762 27.757412 
0.723532 0.687682 -0.059964 28.264311 
0.724102 0.688224 0.044985 28.000231 
0.640066 0.620652 0.452886 27.505079 
0.706399 0.691859 0.149438 28.470007 
0.507892 0.502438 0.699716 31.015917 
0.283896 0.280847 0.916803 31.218704 
0.673441 0.679668 -0.290740 28.000231 
0.652895 0.665555 0.361615 29.089560 
0.616359 0.634627 -0.466208 26.465265 
0.138661 0.150102 -0.978899 26.964851 
0.526084 0.581044 -0.620986 26.316721 
0.659725 0.728647 -0.183947 27.331778 
0.648619 0.716381 0.257081 28.000231 
0.450454 0.502542 -0.737931 29.714636 
0.361404 0.407272 0.838759 31.664341 
0.177547 0.200081 0.963558 30.327435 
0.219333 0.252206 -0.942489 26.771318 
0.508188 0.584354 0.632673 29.287621 
0.648243 0.760629 -0.034993 26.762356 
0.553073 0.655572 0.514136 27.534639 
0.592864 0.709908 -0.380188 25.809191 
0.639427 0.765664 0.069943 27.232748 
0.357549 0.432514 -0.827702 26.564295 
0.619799 0.765203 0.174108 27.691677 
0.529974 0.661036 -0.531186 26.923838 
0.403351 0.503100 0.764329 31.742043 
0.570122 0.725868 0.384808 27.678383 
0.592321 0.761944 -0.261909 26.671577 
0.596359 0.791354 -0.134590 27.025444 
0.260466 0.349252 -0.900100 26.910900 
0.429555 0.600682 -0.674288 26.415751 
0.559030 0.781737 0.276356 26.821423 
0.517568 0.731460 -0.443948 25.920601 
0.406803 0.587289 0.699716 29.683741 
0.560993 0.827443 -0.024997 26.589052 
0.555012 0.827499 0.084898 26.772760 
0.456562 0.680716 0.572867 27.752655 
0.071562 0.109038 0.991458 30.725443 
0.441572 0.680203 -0.585097 26.465265 
0.510551 0.786459 -0.347590 25.802048 
0.482971 0.743975 0.461779 27.655090 
0.254660 0.396609 0.881958 31.119675 
0.345684 0.544338 -0.764329 26.553593 
0.509261 0.838515 0.193767 26.762356 
0.482069 0.793743 0.370920 27.207991 
0.500063 0.832727 -0.237703 26.564295 
0.510135 0.849499 -0.134590 26.069145 
0.289903 0.499588 0.816314 31.722126 
0.182615 0.318356 0.930216 30.773069 
0.271888 0.490904 -0.827702 26.811871 
0.427494 0.771855 -0.470626 25.953609 
0.048313 0.088269 -0.994924 27.025484 
0.475637 0.879414 -0.019999 26.712841 
0.455021 0.883057 0.114747 26.861385 
0.353267 0.685582 0.636537 27.851685 
0.305729 0.593327 0.744643 27.901199 
0.346929 0.681633 -0.644218 26.415751 
0.387882 0.762096 0.518418 26.861385 
0.429075 0.853559 0.295520 26.745850 
0.415708 0.847996 -0.328769 26.465265 
0.354529 0.751513 -0.556361 26.465265 
0.412413 0.885662 -0.213347 26.415657 
0.196824 0.428265 -0.881958 26.811871 
0.415071 0.903142 -0.109778 26.465265 
0.278755 0.614616 -0.737931 26.613810 
0.377148 0.831559 0.407760 26.910900 
0.386078 0.898603 0.208460 27.073044 
0.145079 0.347205 -0.926499 27.059444 
0.385466 0.922505 0.019999 26.762356 
0.344642 0.836539 -0.425939 26.069145 
0.181868 0.467792 0.864925 30.550253 
0.296223 0.773358 0.560509 27.397285 
0.097829 0.259279 -0.960835 27.044752 
0.333971 0.885132 0.324043 27.158476 
0.247637 0.666389 0.703279 27.769159 
0.206849 0.556627 0.804599 29.325548 
0.316741 0.893150 -0.319309 26.960415 
0.200939 0.575733 -0.792563 26.903452 
0.253090 0.725157 -0.640385 26.477644 
0.326950 0.936782 0.124675 27.059444 
0.276897 0.806304 -0.522687 25.846327 
0.093124 0.271171 0.958016 29.782770 
0.318620 0.943124 -0.094857 26.646820 
0.280882 0.831418 0.479426 26.943911 
0.309037 0.930068 -0.198669 26.597305 
0.282797 0.928005 0.242556 27.158476 
0.277065 0.960643 0.019999 26.762356 
0.144833 0.511761 -0.846832 27.234022 
0.240907 0.884915 -0.398609 26.564295 
0.106504 0.399079 0.910710 30.178890 
0.174454 0.667064 -0.724287 26.613810 
0.202185 0.773099 0.601198 27.084202 
0.231381 0.903160 0.361615 27.133718 
0.231332 0.962815 -0.139543 26.838072 
0.226671 0.964627 0.134590 26.995169 
0.147506 0.627729 0.764329 27.752655 
0.214534 0.933920 -0.285952 26.712841 
0.164573 0.716429 0.677972 28.061676 
0.174348 0.776758 -0.605186 26.423695 
0.174742 0.837083 -0.518418 26.247654 
0.168347 0.848790 0.501213 27.329605 
0.189582 0.981547 -0.024997 27.022308 
0.183508 0.950104 0.252245 27.034687 
0.096396 0.527350 0.844162 28.594410 
0.074816 0.433773 -0.897911 27.301073 
0.140716 0.895886 -0.421410 26.258270 
0.089165 0.607234 -0.789504 27.321356 
0.139764 0.986097 0.089879 26.859564 
0.133428 0.976511 -0.169182 26.975195 
0.126701 0.927281 0.352274 27.263494 
0.094536 0.718645 -0.688921 26.663324 
0.101823 0.774038 0.624897 27.439060 
0.115297 0.949830 -0.290740 27.331778 
0.064778 0.711478 0.699716 28.000231 
0.002339 0.025687 0.999667 31.122448 
0.082587 0.960226 0.266731 27.340031 
0.028114 0.347201 -0.937369 27.480322 
0.064494 0.796493 -0.601198 26.250700 
0.070240 0.867454 -0.492535 26.667694 
0.080692 0.996538 -0.019999 27.059444 
0.067513 0.889008 0.452886 27.752655 
0.043415 0.612208 0.789504 27.536959 
0.035247 0.534928 -0.844162 27.851685 
0.050988 0.837642 0.543835 27.574598 
0.055182 0.987966 0.144492 27.653625 
0.046865 0.921806 -0.384808 27.307020 
0.020562 0.448664 0.893464 29.287621 
0.011962 0.334024 0.942489 29.714857 
0.030511 0.990431 -0.134590 27.438034 
0.015202 0.962305 -0.271547 27.406050 
0.014727 0.932211 0.361615 27.554596 
0.001042 0.179810 -0.983701 27.328259 
0.000609 0.764842 0.644218 27.059444 
-0.006177 0.671149 -0.741297 27.307020 
-0.009187 0.998158 0.059964 27.257505 
-0.020440 0.844341 -0.535416 27.133718 
-0.028588 0.978644 0.203567 27.634268 
-0.021341 0.544084 0.838759 28.179567 
-0.044154 0.998224 -0.039989 27.505079 
-0.009246 0.209034 0.977865 30.873465 
-0.034267 0.695864 0.717356 27.207991 
-0.048303 0.890259 0.452886 27.257505 
-0.044678 0.753770 -0.655617 26.976919 
-0.055582 0.937727 -0.342898 27.455564 
-0.049166 0.829485 0.556361 27.727551 
-0.072507 0.975340 -0.208460 27.398809 
-0.036241 0.456611 -0.888928 28.000231 
-0.071244 0.897624 -0.434966 27.851685 
-0.094470 0.949157 0.300293 27.158476 
-0.062600 0.598570 -0.798621 28.173532 
-0.103442 0.989098 0.104807 27.406050 
-0.085160 0.607809 0.789504 28.099260 
-0.137908 0.949701 -0.281157 26.960415 
-0.110373 0.760082 0.640385 26.910900 
-0.103031 0.685411 -0.720831 27.307020 
-0.124341 0.827169 -0.548024 26.133392 
-0.147752 0.982913 -0.109778 27.307020 
-0.148649 0.988877 -0.005000 27.009930 
-0.169695 0.964243 0.203567 27.341175 
-0.159302 0.905192 0.394019 27.430807 
-0.172862 0.902700 -0.394019 26.415751 
-0.166509 0.846588 0.505533 27.732637 
-0.084080 0.427492 0.900100 29.584709 
-0.161895 0.744206 -0.648034 26.267204 
-0.213742 0.959415 -0.183947 26.547676 
-0.216366 0.971195 0.099833 27.059444 
-0.119189 0.522671 -0.844162 29.139074 
-0.068400 0.293179 -0.953607 27.171104 
-0.165070 0.676869 0.717356 27.884695 
-0.212762 0.853860 -0.475032 27.099079 
-0.240243 0.924636 0.295520 27.529837 
-0.260589 0.963262 -0.064954 26.613810 
-0.252462 0.915047 -0.314567 26.891037 
-0.141456 0.512705 0.846832 28.297319 
-0.228230 0.796079 -0.560509 27.047066 
-0.221870 0.773895 0.593177 28.173532 
-0.093718 0.320830 0.942489 30.698797 
-0.279504 0.939366 0.198669 27.356112 
-0.182516 0.602368 -0.777072 28.658876 
-0.269141 0.872522 0.407760 28.798691 
-0.129061 0.397150 -0.908633 28.361532 
-0.266658 0.820566 0.505533 27.698040 
-0.198733 0.601299 0.773915 28.173532 
-0.229799 0.683802 -0.692537 26.646820 
-0.313689 0.933427 -0.174108 26.638567 
-0.299509 0.862569 -0.407760 26.960415 
-0.327755 0.943916 0.039989 26.778860 
-0.340296 0.892674 0.295520 27.703140 
-0.318119 0.810068 -0.492535 27.169127 
-0.364874 0.929124 -0.059964 26.811871 
-0.361242 0.893509 -0.266731 26.712841 
-0.293855 0.716501 0.632673 28.186153 
-0.377868 0.908386 0.179030 27.439060 
-0.315209 0.747198 -0.585097 26.811871 
-0.369105 0.839566 0.398609 28.495380 
-0.225034 0.504993 -0.833272 30.995888 
-0.387985 0.847763 -0.361615 27.257505 
-0.411780 0.899755 -0.144492 26.785761 
-0.185044 0.404330 0.895699 30.302677 
-0.359742 0.775776 0.518418 27.756956 
-0.286970 0.610824 -0.737931 27.783737 
-0.433901 0.900073 0.039989 27.042940 
-0.304100 0.622837 0.720831 28.024988 
-0.250560 0.506738 0.824886 28.281763 
-0.115535 0.225097 0.967462 31.235600 
-0.447857 0.861929 0.237703 27.422382 
-0.417899 0.784985 -0.457338 27.406050 
-0.454129 0.853040 -0.257081 26.762356 
-0.363205 0.658251 -0.659385 25.573996 
-0.489851 0.867161 -0.089879 26.613810 
-0.391985 0.685883 0.613117 27.538090 
-0.102280 0.176908 -0.978899 27.364895 
-0.462939 0.800715 0.380188 28.495380 
-0.500253 0.855355 0.134590 27.274010 
-0.237464 0.396867 -0.886627 29.287621 
-0.423771 0.708235 -0.564642 27.604111 
-0.454300 0.742308 0.492535 27.752655 
-0.489695 0.791229 -0.366273 26.844879 
-0.530273 0.847296 0.029996 27.059444 
-0.193768 0.306198 0.932039 30.971130 
-0.330785 0.516977 -0.789504 27.525698 
-0.070842 0.109507 0.991458 31.831757 
-0.180366 0.275776 -0.944148 27.496828 
-0.342383 0.523496 0.780209 28.706280 
-0.539419 0.815826 -0.208460 26.711979 
-0.401667 0.607489 0.685289 28.990530 
-0.534058 0.799006 0.276356 27.703140 
-0.507786 0.735575 -0.448423 27.406050 
-0.587611 0.807274 -0.054972 27.009930 
-0.412824 0.561228 -0.717356 28.544895 
-0.587536 0.798747 0.129634 27.455564 
-0.324827 0.437002 0.838759 28.915514 
-0.547135 0.728447 0.412321 27.987852 
-0.500659 0.659675 0.560509 28.006300 
-0.478173 0.617133 -0.624897 29.980829 
-0.586888 0.741996 -0.324043 26.539537 
-0.523887 0.655581 -0.543835 33.113010 
-0.598968 0.734356 0.319309 28.322077 
-0.627286 0.761271 -0.164252 26.936377 
-0.348359 0.418485 -0.838759 26.762356 
-0.646772 0.761356 0.044985 27.296598 
-0.504325 0.587692 0.632673 27.703140 
-0.595387 0.686828 -0.416871 26.857260 
-0.639228 0.737403 0.218230 27.893806 
-0.456354 0.526442 0.717356 28.198290 
-0.303474 0.343089 0.888928 30.872101 
-0.591160 0.655013 0.470626 27.579353 
-0.672681 0.737888 -0.054972 27.126404 
-0.431306 0.463714 -0.773915 26.446859 
-0.671299 0.700375 -0.242556 26.267204 
-0.506559 0.523237 -0.685289 28.594410 
-0.291376 0.286290 -0.912764 27.365044 
-0.601534 0.585150 -0.543835 30.745941 
-0.710753 0.691394 0.129634 27.554596 
-0.672106 0.653800 0.347590 28.099260 
-0.439934 0.427951 0.789504 28.615400 
-0.214430 0.204456 0.955101 31.136761 
-0.683092 0.644830 -0.342898 26.465265 
-0.602212 0.568481 0.560509 28.019358 
-0.733998 0.679133 0.005000 27.257505 
-0.733710 0.672089 -0.099833 26.861385 
-0.720979 0.647287 0.247404 27.455564 
-0.668080 0.593790 -0.448423 26.118660 
-0.564405 0.491629 0.663135 28.602663 
-0.397851 0.346551 0.849481 28.668682 
-0.686105 0.579769 0.439462 28.198290 
-0.749373 0.626836 -0.213347 25.871084 
-0.429036 0.355249 -0.830497 26.415751 
-0.521956 0.427808 -0.737931 25.986620 
-0.601383 0.492908 -0.628793 25.177876 
-0.218932 0.177619 -0.959437 26.969458 
-0.778782 0.612686 0.134590 26.250700 
-0.744055 0.573413 0.342898 26.712841 
-0.798051 0.602403 0.014999 25.970116 
-0.748367 0.559047 -0.356949 26.069145 
-0.334553 0.249919 0.908633 31.392008 
-0.679156 0.502073 -0.535416 25.545111 
-0.681657 0.498671 0.535416 27.776520 
-0.553556 0.404958 0.727726 28.075642 
-0.807582 0.578484 -0.114747 26.316721 
-0.794285 0.557026 0.242556 27.207991 
-0.640175 0.430111 0.636537 27.835180 
-0.744403 0.494754 -0.448423 26.118660 
-0.809061 0.526140 -0.261909 26.168175 
-0.511203 0.332440 0.792563 28.823317 
-0.747931 0.481083 0.457338 27.480322 
-0.841292 0.529316 0.109778 26.861385 
-0.640306 0.393980 -0.659385 25.375935 
-0.407650 0.245241 -0.879590 26.316721 
-0.806397 0.485126 0.338197 27.207991 
-0.858381 0.510572 -0.049979 26.415751 
-0.529049 0.311112 -0.789504 26.189718 
-0.453772 0.260773 0.852108 30.575010 
-0.718682 0.394105 -0.572867 25.375935 
-0.817481 0.448284 -0.361615 26.019630 
-0.864909 0.474292 -0.164252 26.563988 
-0.731014 0.400868 0.552199 28.487877 
-0.864512 0.457344 0.208460 26.649748 
-0.329387 0.172150 -0.928369 26.638567 
-0.607857 0.317688 0.727726 27.851685 
-0.786023 0.400849 -0.470626 25.772055 
-0.865252 0.430406 -0.257081 26.245985 
-0.894689 0.439482 0.079915 26.471867 
-0.815959 0.395757 0.421410 27.240999 
-0.292942 0.140278 0.945784 31.812885 
-0.647407 0.302096 -0.699716 25.227390 
-0.905915 0.422722 -0.024997 26.452887 
-0.696298 0.316470 0.644218 27.950716 
-0.870883 0.385359 0.305059 26.919153 
-0.562489 0.245541 0.789504 28.359215 
-0.915186 0.383264 -0.124675 26.317345 
-0.511013 0.211006 -0.833272 25.994873 
-0.853086 0.347272 -0.389418 25.811377 
-0.913078 0.366382 0.179030 26.792927 
-0.778831 0.312514 0.543835 28.548273 
-0.733210 0.285729 -0.617059 25.326420 
-0.389094 0.151628 0.908633 31.664341 
-0.815544 0.303805 -0.492535 25.948141 
-0.910233 0.339078 -0.237703 25.970116 
-0.938549 0.338978 0.064954 26.514780 
-0.438039 0.148373 -0.886627 26.019630 
-0.610742 0.206872 -0.764329 25.922464 
-0.874208 0.296114 0.384808 26.811871 
-0.484353 0.161366 0.859862 31.631330 
-0.668865 0.219128 0.710353 27.406050 
-0.951418 0.306437 -0.029996 26.349730 
-0.914777 0.294636 0.276356 26.663324 
-0.837595 0.269776 0.475032 27.505079 
-0.946981 0.289404 -0.139543 26.019028 
-0.901058 0.265547 -0.342898 25.590500 
-0.752950 0.217813 0.620986 27.158476 
-0.952353 0.260081 0.159318 26.711943 
-0.810642 0.217031 -0.543835 25.450207 
-0.701105 0.183953 -0.688921 25.227390 
-0.605826 0.155721 0.780209 30.253923 
-0.873208 0.219800 -0.434966 25.871084 
-0.944237 0.222674 -0.242556 26.118660 
-0.976196 0.214806 0.029996 26.217690 
-0.911534 0.195805 0.361615 26.762356 
-0.945548 0.193240 0.261909 26.861385 
-0.819523 0.167485 0.548024 27.615873 
-0.768724 0.153103 -0.620986 25.375935 
-0.976768 0.194538 -0.089879 25.986620 
-0.535051 0.101012 -0.838759 26.118660 
-0.710163 0.126730 0.692537 28.037367 
-0.924446 0.145956 -0.352274 25.871084 
-0.876142 0.138330 0.461779 27.009930 
-0.637910 0.094189 -0.764329 25.830399 
-0.980927 0.144836 0.129634 26.663324 
-0.855347 0.113212 -0.505533 24.740639 
-0.971593 0.128598 -0.198669 26.039436 
-0.994396 0.101372 -0.029996 26.217690 
-0.957939 0.092819 0.271547 26.349730 
