ply
format ascii 1.0
comment Created by CloudCompare v2.14.alpha (Nov 11 2011)
comment Created 2025-12-04T10:54:22
obj_info Generated by CloudCompare!
element vertex 1231
property float x
property float y
property float z
property float intensity
end_header
0.492236 -0.222778 0.841471 28.742954 
0.912359 -0.407434 0.039989 27.129591 
0.454327 -0.202890 0.867423 28.099260 
0.410100 -0.183139 0.893464 28.272562 
0.885524 -0.390152 -0.252245 26.795212 
0.902688 -0.397714 -0.164252 26.774691 
0.914556 -0.402943 -0.034993 26.908140 
0.819992 -0.361279 0.443948 27.843433 
0.222674 -0.098108 0.969944 28.109524 
0.855057 -0.371634 -0.361615 26.366236 
0.869110 -0.377742 0.319309 27.257505 
0.849986 -0.369431 0.375559 27.554596 
0.065015 -0.027872 -0.997495 26.689480 
0.640345 -0.274516 -0.717356 26.564295 
0.771304 -0.330658 0.543835 31.031290 
0.543231 -0.229674 -0.807558 26.637136 
0.757575 -0.320297 -0.568762 26.471523 
0.874304 -0.369650 -0.314567 26.509369 
0.803851 -0.339863 0.488177 27.451424 
0.704466 -0.297844 0.644218 31.862400 
0.818693 -0.341323 -0.461779 26.696335 
0.748516 -0.312065 0.585097 31.291759 
0.656171 -0.273565 0.703279 31.899536 
0.390434 -0.160490 -0.906534 26.762356 
0.704421 -0.289556 -0.648034 26.448761 
0.786081 -0.323122 -0.526943 26.529888 
0.918258 -0.377454 -0.119712 26.600296 
0.915203 -0.376199 0.144492 27.078686 
0.906438 -0.367308 -0.208460 26.622385 
0.923834 -0.374358 0.079915 27.331778 
0.535327 -0.216926 0.816314 28.898548 
0.928653 -0.370916 0.005000 27.047066 
0.911064 -0.363891 0.193767 27.177599 
0.899795 -0.359389 0.247404 27.220985 
0.471042 -0.185415 -0.862404 26.242447 
0.585673 -0.230536 -0.777072 26.629799 
0.737937 -0.290472 -0.609159 26.473196 
0.928229 -0.365376 -0.069943 26.712841 
0.847728 -0.333688 0.412321 27.435711 
0.845500 -0.327938 -0.421410 25.932980 
0.622294 -0.241365 0.744643 31.837643 
0.680296 -0.259956 -0.685289 26.712841 
0.897745 -0.343048 -0.276356 26.600227 
0.875878 -0.334692 0.347590 27.232748 
0.624676 -0.235130 -0.744643 26.732033 
0.923186 -0.347490 -0.164252 26.489985 
0.894096 -0.336540 0.295520 27.150934 
0.126701 -0.047691 0.990794 29.842953 
0.869009 -0.322146 -0.375559 26.217690 
0.833842 -0.309110 0.457338 26.869629 
0.801807 -0.297234 0.518418 30.130814 
0.579171 -0.214702 0.786425 30.020954 
0.113197 -0.041320 -0.992713 26.696630 
0.817529 -0.298421 -0.492535 26.653070 
0.742097 -0.270887 0.613117 31.682373 
0.696856 -0.254372 0.670587 31.820053 
0.260792 -0.093721 -0.960835 26.798880 
0.888761 -0.319396 -0.328769 26.217690 
0.940123 -0.337854 0.044985 26.993425 
0.934859 -0.335963 0.114747 26.861385 
0.779350 -0.280077 0.560509 30.929909 
0.388708 -0.139691 0.910710 27.925957 
0.354756 -0.125490 -0.926499 26.861385 
0.521214 -0.184373 -0.833272 26.787113 
0.780741 -0.276177 -0.560509 26.267204 
0.916842 -0.324321 -0.232843 26.712841 
0.937057 -0.331472 -0.109778 26.514780 
0.942330 -0.333337 -0.029996 26.514780 
0.931584 -0.324304 0.164252 27.180702 
0.921648 -0.320845 0.218230 27.420441 
0.498290 -0.173465 0.849481 28.124018 
0.873194 -0.299091 0.384808 27.356535 
0.450063 -0.154158 0.879590 28.099260 
0.727847 -0.245246 -0.640385 26.381227 
0.844895 -0.284686 -0.452886 26.630316 
0.667000 -0.224744 0.710353 31.770472 
0.434794 -0.144086 -0.888928 26.960415 
0.664735 -0.220286 -0.713864 26.540236 
0.564600 -0.183975 -0.804599 26.585289 
0.868162 -0.282890 -0.407760 26.316721 
0.933686 -0.304241 -0.188859 26.510654 
0.916350 -0.298592 0.266731 27.207991 
0.899494 -0.293099 0.324043 27.059444 
0.761010 -0.243772 -0.601198 26.514780 
0.911195 -0.291881 -0.290740 26.514780 
0.859586 -0.275349 0.430458 26.861385 
0.831144 -0.266238 0.488177 27.059444 
0.318306 -0.101962 0.942489 28.396351 
0.813178 -0.256007 -0.522687 26.899206 
0.951511 -0.299558 -0.069943 26.663324 
0.953799 -0.300278 0.010000 27.158476 
0.950796 -0.299333 0.079915 26.960415 
0.890686 -0.275522 -0.361615 26.267204 
0.733750 -0.226975 0.640385 31.540552 
0.623297 -0.192808 0.757843 30.756527 
0.559582 -0.173099 0.810497 28.793007 
0.209546 -0.063674 -0.975723 26.702162 
0.605933 -0.184122 -0.773915 26.436478 
0.703334 -0.213719 -0.677972 26.574806 
0.947441 -0.287895 -0.139543 26.684011 
0.948729 -0.288287 0.129634 26.910900 
0.810656 -0.246331 0.531186 30.030346 
0.775931 -0.235779 0.585097 31.317736 
0.941000 -0.280806 0.188859 27.071823 
0.311695 -0.091319 -0.945784 26.613810 
0.929828 -0.272417 -0.247404 26.415751 
0.498883 -0.143456 -0.854714 26.638567 
0.896018 -0.257654 0.361615 27.257505 
0.706460 -0.203146 0.677972 31.565310 
0.645958 -0.182256 -0.741297 26.571732 
0.794324 -0.224117 -0.564642 26.762356 
0.842290 -0.237651 -0.483807 26.790033 
0.266708 -0.075251 0.960835 28.453243 
0.402465 -0.111386 -0.908633 26.663324 
0.865718 -0.239594 -0.439462 26.564295 
0.963337 -0.266611 -0.029996 26.861385 
0.936147 -0.259086 0.237703 27.385662 
0.920726 -0.254818 0.295520 27.505079 
0.913018 -0.247777 -0.324043 26.564295 
0.945855 -0.256689 -0.198669 26.774734 
0.964116 -0.261644 0.044985 26.910900 
0.858250 -0.232914 0.457338 27.009930 
0.739136 -0.196626 -0.644218 26.712841 
0.888211 -0.236283 -0.394019 26.811871 
0.961562 -0.255796 -0.099833 26.894396 
0.882400 -0.234737 0.407760 27.653625 
0.662816 -0.176323 0.727726 30.773069 
0.963300 -0.251108 0.094857 27.389545 
0.543723 -0.138835 -0.827702 26.566917 
0.685397 -0.175011 -0.706825 26.613810 
0.957297 -0.244438 0.154380 27.545879 
0.838423 -0.214085 0.501213 27.533661 
0.765433 -0.195447 0.613117 31.020645 
0.602286 -0.153789 0.783327 28.794855 
0.531632 -0.135748 0.836026 28.143965 
0.430838 -0.110011 0.895699 28.024988 
0.369083 -0.094242 0.924606 28.173532 
0.772311 -0.193095 -0.605186 26.613810 
0.824520 -0.206149 -0.526943 26.684546 
0.959244 -0.239833 -0.149438 26.695988 
0.806127 -0.201550 0.556361 30.474897 
0.491103 -0.122787 0.862404 28.330894 
0.932156 -0.228114 -0.281157 27.158476 
0.589169 -0.141061 -0.795602 26.572548 
0.916842 -0.219514 0.333487 27.356535 
0.208240 -0.049858 0.976806 28.495380 
0.973654 -0.227975 0.005000 27.207991 
0.953279 -0.223204 0.203567 27.877865 
0.738391 -0.172889 0.651834 31.763371 
0.468022 -0.107119 -0.877200 26.415751 
0.910578 -0.208409 -0.356949 26.415751 
0.948001 -0.216974 -0.232843 26.811871 
0.973040 -0.222705 -0.059964 27.059444 
0.940766 -0.215318 0.261909 27.851685 
0.165871 -0.037092 -0.985450 26.672787 
0.629285 -0.140720 -0.764329 26.750513 
0.861066 -0.192551 -0.470626 26.762356 
0.700607 -0.156669 0.696135 31.565310 
0.721466 -0.157550 -0.674288 26.316721 
0.883921 -0.193026 -0.425939 26.415751 
0.975499 -0.213025 0.054972 27.356535 
0.903614 -0.197327 0.380188 27.554596 
0.879716 -0.192108 0.434966 27.604111 
0.641110 -0.140003 0.754571 28.841986 
0.804432 -0.171459 -0.568762 26.712841 
0.972120 -0.207200 -0.109778 26.910900 
0.970998 -0.206961 0.119712 27.356535 
0.572875 -0.122104 0.810497 28.439945 
0.359329 -0.074712 -0.930216 26.861385 
0.962355 -0.200094 -0.183947 27.036339 
0.930314 -0.188584 -0.314567 27.307020 
0.860089 -0.174349 0.479426 28.049746 
0.832959 -0.168849 0.526943 27.876442 
0.794798 -0.161114 0.585097 30.575010 
0.669291 -0.132192 -0.731146 26.514780 
0.756629 -0.149442 -0.636537 26.382740 
0.844787 -0.162469 -0.509841 26.846167 
0.967848 -0.186136 0.169182 27.727898 
0.936682 -0.180142 0.300293 27.505079 
0.518617 -0.097054 -0.849481 26.417805 
0.947325 -0.177282 -0.266731 27.307020 
0.982629 -0.183889 -0.024997 27.059444 
0.957052 -0.179103 0.227978 27.582943 
0.906180 -0.164897 -0.389418 27.207991 
0.768094 -0.139770 0.624897 31.020645 
0.923325 -0.163252 0.347590 27.356535 
0.678967 -0.120047 0.724287 29.106066 
0.282582 -0.048507 -0.958016 26.581490 
0.975242 -0.167407 -0.144492 26.789967 
0.982814 -0.168707 -0.074930 26.960415 
0.985277 -0.169129 0.024997 27.059444 
0.982433 -0.168641 0.079915 27.207991 
0.899927 -0.154479 0.407760 27.406050 
0.731137 -0.125505 0.670587 31.317736 
0.468874 -0.080486 0.879590 28.371593 
0.434199 -0.072300 -0.897911 26.454365 
0.565731 -0.094202 -0.819192 26.415751 
0.788247 -0.131254 -0.601198 26.514780 
0.877215 -0.146068 -0.457338 27.108959 
0.962643 -0.160293 -0.218230 26.861385 
0.617023 -0.102743 0.780209 28.445866 
0.524637 -0.087359 0.846832 28.000231 
0.338978 -0.056445 0.939099 28.594410 
0.705296 -0.113820 -0.699716 26.316721 
0.610280 -0.095358 -0.786425 26.440027 
0.826435 -0.129133 -0.548024 27.121340 
0.926406 -0.144754 -0.347590 27.307020 
0.979675 -0.153077 0.129634 28.247805 
0.820979 -0.128281 0.556361 29.172729 
0.412588 -0.064468 0.908633 28.396351 
0.952949 -0.144024 0.266731 28.429359 
0.881557 -0.133234 0.452886 27.975473 
0.855607 -0.129312 0.501213 27.656958 
0.740645 -0.108153 -0.663135 26.366236 
0.943837 -0.137824 -0.300293 27.406050 
0.970752 -0.141754 0.193767 28.982277 
0.649798 -0.091571 -0.754571 26.415751 
0.900695 -0.122338 -0.416871 27.108959 
0.990294 -0.134508 -0.034993 28.544895 
0.940599 -0.127758 0.314567 29.188591 
0.855527 -0.111849 -0.505533 27.048559 
0.975542 -0.127540 -0.179030 28.495380 
0.985569 -0.128851 -0.109778 28.742954 
0.918978 -0.120145 0.375559 27.703140 
0.795328 -0.103979 0.597195 29.832285 
0.654414 -0.085556 0.751280 28.495380 
0.489379 -0.061493 -0.869900 26.366236 
0.960113 -0.120643 -0.252245 27.554596 
0.990958 -0.124519 0.049979 29.584709 
0.585186 -0.073532 0.807558 28.148775 
0.762530 -0.091945 0.640385 30.376949 
0.712748 -0.085943 0.696135 29.089560 
0.168745 -0.020347 0.985450 29.800108 
0.772437 -0.089224 -0.628793 26.564295 
0.396926 -0.043839 -0.916803 26.613810 
0.808959 -0.089346 -0.581035 27.108959 
0.921197 -0.101742 -0.375559 27.009930 
0.988990 -0.109230 0.099833 30.608021 
0.982040 -0.108462 0.154380 30.650358 
0.966637 -0.106761 0.232843 30.967657 
0.901389 -0.099555 0.421410 28.082756 
0.294490 -0.032525 0.955101 28.596863 
0.685701 -0.072264 -0.724287 26.366236 
0.879803 -0.092720 -0.466208 27.158476 
0.842589 -0.088798 0.531186 27.529837 
0.332568 -0.033368 -0.942489 26.712841 
0.939692 -0.094284 -0.328769 27.455564 
0.994992 -0.099832 0.005000 30.872101 
0.875573 -0.087850 0.475032 27.851685 
0.537866 -0.051252 -0.841471 26.304342 
0.993053 -0.094625 -0.069943 30.030346 
0.955334 -0.091031 0.281157 29.931314 
0.237511 -0.021434 -0.971148 26.665709 
0.721902 -0.065147 -0.688921 26.663324 
0.838494 -0.075669 -0.539632 26.784447 
0.973022 -0.087809 -0.213347 29.526203 
0.985501 -0.088935 -0.144492 29.649164 
0.935571 -0.084429 0.342898 28.891500 
0.587659 -0.050072 -0.807558 26.465265 
0.623260 -0.053105 0.780209 28.099260 
0.550867 -0.046937 0.833272 28.020676 
0.504393 -0.042977 0.862404 28.297319 
0.901858 -0.072303 -0.425939 26.811871 
0.956592 -0.076691 -0.281157 27.703140 
0.817027 -0.065502 0.572867 27.752655 
0.627643 -0.047162 -0.777072 26.208662 
0.995681 -0.074816 0.054972 28.941015 
0.978290 -0.073510 0.193767 29.106066 
0.687560 -0.051664 0.724287 28.297319 
0.452321 -0.033988 0.891207 27.901199 
0.379854 -0.028543 0.924606 28.610153 
0.247478 -0.018596 0.968715 29.431732 
0.918805 -0.064422 0.389418 27.554596 
0.788058 -0.055254 0.613117 29.337135 
0.743349 -0.052120 0.666870 28.742954 
0.990102 -0.064447 0.124675 28.941015 
0.457222 -0.027466 -0.888928 26.491121 
0.753734 -0.045278 -0.655617 26.811871 
0.794651 -0.047736 -0.605186 26.960415 
0.863767 -0.051888 -0.501213 27.308678 
0.997751 -0.059937 -0.029996 28.495380 
0.921601 -0.050739 -0.384808 27.554596 
0.992989 -0.054670 -0.104807 28.313826 
0.968670 -0.053331 0.242556 29.238106 
0.899086 -0.049500 0.434966 28.000231 
0.861502 -0.047430 0.505533 27.741686 
0.982614 -0.049172 -0.179030 28.577906 
0.949608 -0.047520 0.309816 28.742954 
0.100500 -0.005029 0.994924 30.441294 
0.666787 -0.030026 -0.744643 26.514780 
0.940123 -0.042334 -0.338197 27.505079 
0.969155 -0.043641 -0.242556 27.571100 
0.824675 -0.033005 -0.564642 26.811871 
0.888581 -0.035562 -0.457338 27.207991 
0.589316 -0.023585 0.807558 28.198290 
0.999275 -0.034989 0.014999 28.346834 
0.655817 -0.022963 0.754571 28.198290 
0.703529 -0.021112 -0.710353 26.465265 
0.996353 -0.029900 0.079915 28.421108 
0.985974 -0.029588 0.164252 28.874084 
0.933703 -0.028020 0.356949 28.928637 
0.836086 -0.025090 0.548024 27.530382 
0.501745 -0.012546 -0.864925 26.647745 
0.956503 -0.023918 -0.290740 27.488575 
0.717686 -0.017946 0.696135 28.148775 
0.997689 -0.019956 -0.064954 28.066250 
0.882156 -0.017645 0.470626 27.752655 
0.767900 -0.015360 0.640385 28.396351 
0.561105 -0.008417 -0.827702 26.415751 
0.908863 -0.013634 -0.416871 27.084202 
0.990105 -0.014853 -0.139543 28.082083 
0.915013 -0.013726 0.403190 27.505079 
0.807937 -0.012120 0.589145 27.901199 
0.849858 -0.008499 -0.526943 27.383320 
0.976928 -0.009770 0.213347 28.812626 
0.963723 -0.009638 0.266731 28.371593 
0.338929 -0.003389 0.940806 29.159815 
0.371655 -0.001858 -0.928369 26.480270 
0.605813 -0.003029 -0.795602 26.598433 
0.774409 -0.003872 -0.632673 26.960415 
0.978019 -0.004890 -0.208460 28.077658 
0.531854 -0.002659 0.846832 27.972921 
0.296281 0.000000 -0.955101 26.638309 
0.738469 0.000000 -0.674288 26.415751 
0.928665 0.000000 -0.370920 27.447313 
0.417589 0.002088 -0.908633 26.539537 
0.805062 0.004025 -0.593177 26.910900 
0.999788 0.004999 -0.019999 27.950716 
0.992796 0.004964 0.119712 28.557274 
0.949224 0.004746 0.314567 28.470623 
0.484498 0.002423 0.874789 28.297319 
0.417589 0.002088 0.908633 28.099260 
0.875131 0.008752 -0.483807 27.084202 
0.999150 0.009992 0.039989 28.218096 
0.860226 0.008603 0.509841 27.680285 
0.685834 0.006859 0.727726 28.049746 
0.621579 0.006216 0.783327 27.843111 
0.945936 0.014190 -0.324043 27.983725 
0.966281 0.014495 -0.257081 27.495176 
0.194509 0.003891 -0.980893 26.661823 
0.644698 0.012896 -0.764329 26.168175 
0.994805 0.019899 -0.099833 28.074503 
0.985277 0.024637 0.169182 28.706036 
0.932036 0.023306 0.361615 28.764175 
0.900166 0.022509 0.434966 27.628868 
0.741599 0.018544 0.670587 28.099260 
0.135318 0.004061 -0.990794 26.670971 
0.681914 0.020464 -0.731146 26.217690 
0.985141 0.029563 -0.169182 27.967066 
0.833337 0.025008 0.552199 27.393927 
0.830432 0.029077 -0.556361 26.795364 
0.895504 0.031355 -0.443948 27.247602 
0.970743 0.033990 0.237703 28.429359 
0.786435 0.027536 0.617059 27.851685 
0.569068 0.019926 0.822049 28.152113 
0.916192 0.041257 -0.398609 27.406050 
0.997477 0.044917 -0.054972 27.925957 
0.995793 0.044841 0.079915 28.321898 
0.461907 0.023115 -0.886627 26.465265 
0.974678 0.048775 -0.218230 28.067860 
0.998738 0.049979 0.005000 28.257809 
0.957046 0.047892 0.285952 28.189537 
0.878869 0.043980 0.475032 28.161154 
0.526822 0.029004 -0.849481 26.564295 
0.716825 0.039465 -0.696135 26.638567 
0.757215 0.041689 -0.651834 26.712841 
0.856412 0.047150 -0.514136 27.177393 
0.955355 0.052598 -0.290740 27.509077 
0.655226 0.036074 0.754571 28.024988 
0.788571 0.047371 -0.613117 27.158476 
0.934213 0.056120 -0.352274 27.727898 
0.989778 0.059458 0.129634 28.742954 
0.915470 0.054994 0.398609 28.308805 
0.295748 0.017766 0.955101 29.555103 
0.208862 0.012547 0.977865 29.384241 
0.580455 0.037783 -0.813416 26.613810 
0.989468 0.064406 -0.129634 27.909246 
0.709412 0.046177 0.703279 28.445866 
0.978645 0.068617 0.193767 28.381664 
0.940446 0.065939 0.333487 28.346834 
0.853033 0.059810 0.518418 27.914585 
0.811590 0.060984 0.581035 27.529837 
0.375239 0.028196 0.926499 29.361437 
0.879511 0.070511 -0.470626 27.419086 
0.759176 0.060864 0.648034 28.099260 
0.619366 0.052773 -0.783327 26.252790 
0.980292 0.083526 -0.179030 27.854856 
0.995381 0.084812 0.044985 27.925957 
0.895018 0.076260 0.439462 27.518766 
0.603633 0.051433 0.795602 28.131981 
0.512960 0.043707 0.857299 28.297319 
0.451958 0.038509 0.891207 28.544895 
0.813468 0.073410 -0.576959 26.910900 
0.901090 0.081318 -0.425939 27.344149 
0.963747 0.086972 -0.252245 27.678383 
0.992357 0.089554 -0.084898 28.000231 
0.995505 0.089838 -0.029996 27.604111 
0.966211 0.087195 0.242556 28.037367 
0.657007 0.062604 -0.751280 26.366236 
0.332568 0.033368 -0.942489 26.660646 
0.942916 0.094607 -0.319309 27.391600 
0.990518 0.099383 0.094857 28.346834 
0.251622 0.026518 -0.967462 26.636677 
0.919815 0.096937 -0.380188 27.304543 
0.982570 0.103551 0.154380 28.411060 
0.951533 0.100280 0.290740 28.841986 
0.923550 0.097331 0.370920 28.591160 
0.734005 0.081068 -0.674288 26.836628 
0.839484 0.092717 -0.535416 27.254486 
0.872279 0.096340 0.479426 27.732096 
0.678098 0.074893 0.731146 28.074503 
0.392143 0.045296 -0.918788 26.613810 
0.692105 0.079945 -0.717356 26.663324 
0.766152 0.088498 -0.636537 27.009930 
0.830938 0.095981 0.548024 27.630001 
0.784774 0.090649 0.613117 27.802170 
0.983095 0.118541 -0.139543 27.901199 
0.553017 0.066682 0.830497 28.284941 
0.489379 0.061493 -0.869900 26.415751 
0.969354 0.121804 -0.213347 28.220638 
0.992148 0.124669 0.010000 28.495380 
0.971422 0.122064 0.203567 28.767714 
0.729352 0.091647 0.677972 28.421108 
0.548198 0.071670 -0.833272 26.316721 
0.862949 0.112820 -0.492535 27.176662 
0.903351 0.118102 0.412321 27.554596 
0.639385 0.083592 0.764329 28.000231 
0.950930 0.129161 -0.281157 27.455564 
0.989118 0.134348 -0.059964 28.346834 
0.885076 0.124727 -0.448423 27.307020 
0.988434 0.139292 0.059964 28.544895 
0.935170 0.131786 0.328769 28.693439 
0.790714 0.115464 -0.601198 26.688082 
0.927807 0.135483 -0.347590 27.406050 
0.982390 0.143453 0.119712 28.198290 
0.957509 0.139820 0.252245 28.941015 
0.435235 0.065779 -0.897911 26.762356 
0.587151 0.088739 -0.804599 26.237196 
0.904145 0.141276 -0.403190 27.455564 
0.849955 0.132808 0.509841 28.021097 
0.804121 0.125647 0.581035 27.455564 
0.755673 0.118076 0.644218 27.851685 
0.412588 0.064468 0.908633 29.683741 
0.249983 0.039061 0.967462 29.591290 
0.629013 0.101510 -0.770739 26.339399 
0.817571 0.131939 -0.560509 27.121460 
0.972149 0.156885 -0.174108 28.049746 
0.981790 0.158441 -0.104807 28.247805 
0.880181 0.142043 0.452886 28.099260 
0.334617 0.054000 0.940806 30.773069 
0.143425 0.023146 0.989391 29.574947 
0.972199 0.161885 0.169182 28.953394 
0.916052 0.152535 0.370920 29.139074 
0.585753 0.097536 0.804599 28.324423 
0.482232 0.080298 0.872355 29.040045 
0.710983 0.122045 -0.692537 26.085649 
0.956153 0.164130 -0.242556 27.604111 
0.985388 0.169149 -0.019999 28.941015 
0.697191 0.119678 0.706825 27.963095 
0.664568 0.117501 -0.737931 25.978367 
0.743560 0.131468 -0.655617 26.787113 
0.841312 0.153093 -0.518418 27.063814 
0.935435 0.170221 -0.309816 27.653625 
0.941344 0.171296 0.290740 29.287621 
0.982494 0.183864 0.029996 28.247805 
0.979388 0.183282 0.084898 28.445866 
0.959245 0.179513 0.218230 29.347246 
0.659725 0.123461 0.741297 28.322077 
0.864133 0.166190 -0.475032 27.567192 
0.894644 0.172058 0.412321 28.594410 
0.911064 0.179944 -0.370920 27.108959 
0.978976 0.193357 -0.064954 28.792471 
0.823288 0.162607 0.543835 27.722841 
0.775020 0.153074 0.613117 27.677153 
0.521781 0.103057 0.846832 29.089560 
0.290375 0.058862 -0.955101 26.699194 
0.512933 0.103977 -0.852108 26.663324 
0.884619 0.179321 -0.430458 27.290516 
0.970478 0.196726 -0.139543 28.296263 
0.767409 0.159560 -0.620986 27.376833 
0.958560 0.199305 -0.203567 28.069319 
0.970153 0.201715 0.134590 28.297319 
0.923014 0.191914 0.333487 28.297319 
0.856849 0.178157 0.483807 27.604111 
0.726298 0.151012 0.670587 27.998436 
0.620029 0.128917 0.773915 28.613407 
0.795140 0.173639 -0.581035 27.290758 
0.940267 0.205331 -0.271547 27.703140 
0.083626 0.018700 -0.996322 26.707226 
0.353624 0.079077 -0.932039 26.805681 
0.464266 0.103819 -0.879590 26.366236 
0.551674 0.123365 -0.824886 26.366236 
0.975788 0.218205 -0.014999 28.396351 
0.943098 0.210895 0.257081 28.693439 
0.598276 0.136931 -0.789504 26.381241 
0.958160 0.219299 0.183947 28.676935 
0.681844 0.159649 -0.713864 26.568583 
0.917929 0.214927 -0.333487 27.505079 
0.972194 0.227633 0.054972 28.346834 
0.902393 0.211289 0.375559 28.841986 
0.872456 0.204280 0.443948 27.191484 
0.441651 0.103410 0.891207 30.575010 
0.397260 0.095113 -0.912764 26.613810 
0.714884 0.171160 -0.677972 26.113022 
0.818761 0.196031 -0.539632 27.406050 
0.967656 0.231680 -0.099833 28.099260 
0.794324 0.190180 0.576959 27.815916 
0.553766 0.132585 0.822049 30.455002 
0.370455 0.088696 0.924606 30.475981 
0.288137 0.068987 0.955101 30.079861 
0.633737 0.155086 -0.757843 26.291801 
0.842946 0.206283 -0.496880 26.581385 
0.890834 0.218002 -0.398609 27.505079 
0.680213 0.166460 0.713864 28.159641 
0.956153 0.239060 -0.169182 27.814548 
0.925363 0.231362 0.300293 28.396351 
0.829591 0.207417 0.518418 27.851685 
0.745118 0.186296 0.640385 27.584934 
0.207469 0.052975 -0.976806 26.709341 
0.863852 0.220578 -0.452886 26.861385 
0.942281 0.240604 -0.232843 28.049746 
0.963576 0.246041 0.104807 28.396351 
0.964929 0.256692 -0.054972 28.297319 
0.942031 0.250601 0.223106 28.596367 
0.641423 0.170632 0.747971 29.055319 
0.738143 0.200319 -0.644218 26.511673 
0.921988 0.250211 -0.295520 27.207991 
0.965044 0.261896 0.010000 28.099260 
0.484382 0.131453 0.864925 31.169189 
0.767242 0.212341 -0.605186 26.514780 
0.952217 0.263534 0.154380 28.542412 
0.905340 0.250560 0.342898 28.941015 
0.880009 0.243550 0.407760 29.518690 
0.587698 0.162650 0.792563 30.463221 
0.897295 0.253171 -0.361615 27.307020 
0.849179 0.239595 0.470626 28.099260 
0.710721 0.200529 0.674288 27.950716 
0.952946 0.274024 -0.129634 28.173532 
0.959326 0.275858 0.059964 28.066250 
0.765081 0.220002 0.605186 27.604111 
0.792043 0.232049 -0.564642 26.613810 
0.924894 0.270971 0.266731 28.396351 
0.800081 0.234404 0.552199 27.810249 
0.053518 0.015679 0.998444 30.985695 
0.816926 0.243781 -0.522687 27.406050 
0.869003 0.259322 -0.421410 26.415751 
0.939143 0.280252 -0.198669 28.292002 
0.484353 0.147178 -0.862404 26.440508 
0.564310 0.171475 -0.807558 26.663324 
0.649245 0.197284 -0.734548 26.188166 
0.686898 0.208725 -0.696135 26.861385 
0.181449 0.055136 0.981854 29.571321 
0.157667 0.048772 -0.986287 26.720764 
0.838387 0.259343 -0.479426 27.571100 
0.923228 0.285588 -0.257081 27.637119 
0.523366 0.164768 -0.836026 26.465265 
0.600363 0.189008 -0.777072 26.375622 
0.950403 0.299209 -0.084898 28.346834 
0.953418 0.300158 -0.029996 28.082756 
0.948594 0.298639 0.104807 28.594410 
0.935769 0.294602 0.193767 28.822180 
0.820565 0.258333 0.509841 28.023745 
0.423466 0.135648 -0.895699 26.638567 
0.900948 0.288598 -0.324043 27.505079 
0.905475 0.290049 0.309816 28.792471 
0.882621 0.282728 0.375559 28.346834 
0.673670 0.215795 0.706825 29.683741 
0.518548 0.166105 0.838759 31.218704 
0.322790 0.103398 0.940806 30.822584 
0.950606 0.309755 0.019999 28.297319 
0.856142 0.278973 0.434966 27.207991 
0.730263 0.237956 0.640385 28.297319 
0.401362 0.130784 0.906534 30.822584 
0.312271 0.105219 -0.944148 26.811871 
0.709316 0.239002 -0.663135 26.168175 
0.874678 0.294721 -0.384808 27.207991 
0.935547 0.315230 -0.159318 28.142265 
0.607441 0.204676 0.767543 30.923697 
0.248504 0.085119 -0.964884 26.691023 
0.738582 0.252983 -0.624897 26.366236 
0.935419 0.320404 0.149438 28.316132 
0.918927 0.314755 0.237703 28.544895 
0.769964 0.263732 0.581035 27.802170 
0.440957 0.153507 0.884303 31.441523 
0.764539 0.270446 -0.585097 26.415751 
0.844758 0.298822 -0.443948 26.514780 
0.918992 0.325081 -0.223106 27.855196 
0.940764 0.332783 0.064954 28.297319 
0.829595 0.293458 0.475032 28.099260 
0.552212 0.195338 0.810497 31.233236 
0.358479 0.128828 -0.924606 26.762356 
0.789743 0.283812 -0.543835 26.602198 
0.901780 0.324075 -0.285952 27.455564 
0.694955 0.249748 0.674288 29.881800 
0.812862 0.296718 -0.501213 26.577372 
0.933168 0.340633 -0.114747 28.099260 
0.937682 0.342281 -0.059964 27.950716 
0.882421 0.322109 0.342898 28.099260 
0.790859 0.288686 0.539632 28.292873 
0.224018 0.081773 0.971148 29.889706 
0.899823 0.333569 0.281157 28.742954 
0.858056 0.318086 0.403190 28.891500 
0.636247 0.235860 0.734548 30.624525 
0.617676 0.232495 -0.751280 26.599602 
0.655394 0.246692 -0.713864 26.316721 
0.877540 0.330309 -0.347590 27.356535 
0.935850 0.352257 -0.010000 28.099260 
0.918159 0.345598 0.193767 28.198290 
0.928478 0.354792 0.109778 28.495380 
0.736531 0.285673 0.613117 27.851685 
0.475977 0.184614 0.859862 31.614824 
0.563720 0.221895 -0.795602 26.547791 
0.849636 0.334439 -0.407760 27.108959 
0.914630 0.360023 -0.183947 28.396351 
0.354453 0.139522 0.924606 30.542000 
0.445874 0.178088 -0.877200 26.613810 
0.485055 0.196555 -0.852108 26.712841 
0.896829 0.363415 -0.252245 27.356535 
0.926231 0.375329 0.034993 28.495380 
0.900235 0.364795 0.237703 28.990530 
0.830460 0.336521 0.443948 27.108959 
0.522851 0.214920 -0.824886 26.382740 
0.679889 0.279472 -0.677972 26.415751 
0.733497 0.301508 -0.609159 26.118660 
0.818244 0.336343 -0.466208 26.580801 
0.802654 0.329935 0.496880 27.985762 
0.758100 0.311621 0.572867 27.703140 
0.657530 0.270281 0.703279 30.178890 
0.571303 0.234837 0.786425 31.249250 
0.877582 0.365874 -0.309816 27.488575 
0.919261 0.383251 -0.089879 28.099260 
0.911931 0.380195 0.154380 28.384830 
0.876141 0.365274 0.314567 28.363340 
0.857154 0.357358 0.370920 28.396351 
0.757575 0.320297 -0.568762 26.465265 
0.912049 0.385608 -0.139543 27.936340 
0.701491 0.296586 0.648034 29.436165 
0.509221 0.215295 0.833272 31.586069 
0.781146 0.334877 -0.526943 26.724234 
0.918367 0.393704 -0.039989 28.198290 
0.276698 0.118620 0.953607 30.327435 
0.387146 0.168266 -0.906534 26.663324 
0.851698 0.370174 -0.370920 26.955463 
0.914188 0.397334 0.079915 28.544895 
0.600516 0.264581 0.754571 31.427752 
0.698369 0.311872 -0.644218 26.267204 
0.892066 0.398372 -0.213347 27.946680 
0.894888 0.399632 0.198669 28.584309 
0.771185 0.344390 0.535416 27.684668 
0.580469 0.262711 -0.770739 26.470253 
0.618192 0.279783 -0.734548 26.342630 
0.822313 0.372165 -0.430458 26.267204 
0.876807 0.396828 0.271547 28.833733 
0.829992 0.375640 0.412321 29.152279 
0.401019 0.181494 0.897911 31.565310 
0.908954 0.416866 0.005000 28.297319 
0.871552 0.404999 -0.276356 27.059444 
0.802285 0.372811 0.466208 27.678383 
0.724680 0.336749 0.601198 27.604111 
0.787399 0.370692 -0.492535 26.767778 
0.897693 0.422616 0.124675 28.322077 
0.849899 0.400116 0.342898 28.553148 
0.095541 0.044979 0.994409 29.800440 
0.850940 0.405816 -0.333487 27.047066 
0.889599 0.424253 -0.169182 27.495388 
0.896649 0.427615 -0.114747 27.876442 
0.663498 0.316424 0.677972 30.525496 
0.643298 0.310749 -0.699716 26.762356 
0.722245 0.348884 -0.597195 27.158476 
0.898546 0.434047 -0.064954 27.517458 
0.620857 0.299908 0.724287 31.268221 
0.531073 0.256537 0.807558 31.771622 
0.270424 0.132301 -0.953607 26.735624 
0.317104 0.155139 -0.935616 26.861385 
0.533404 0.260961 -0.804599 26.395039 
0.897138 0.438913 0.049979 27.752655 
0.435211 0.212921 0.874789 31.664341 
0.744567 0.368895 -0.556361 26.762356 
0.823564 0.408034 -0.394019 27.072649 
0.871424 0.431746 0.232843 29.301571 
0.880937 0.441959 0.169182 29.240435 
0.771196 0.386902 0.505533 28.094309 
0.737703 0.370099 0.564642 28.247805 
0.689356 0.345844 0.636537 28.396351 
0.447480 0.227305 -0.864925 26.440508 
0.866014 0.439906 -0.237703 27.934210 
0.850420 0.431984 0.300293 29.264631 
0.822914 0.418012 0.384808 29.337135 
0.199097 0.102390 -0.974616 26.775585 
0.484222 0.249022 -0.838759 26.019630 
0.790842 0.406708 -0.457338 26.432255 
0.889115 0.457247 -0.019999 28.462370 
0.559732 0.287854 0.777072 32.063980 
0.469209 0.241301 0.849481 31.911915 
0.309774 0.159308 0.937369 30.896858 
0.406285 0.211516 -0.888928 27.009930 
0.660966 0.344106 -0.666870 27.455564 
0.800611 0.416807 0.430458 27.678383 
0.843845 0.444691 -0.300293 27.406050 
0.880686 0.464106 0.094857 28.148775 
0.582325 0.310605 -0.751280 28.198290 
0.686078 0.365946 -0.628793 27.356535 
0.754507 0.402445 -0.518418 26.923542 
0.873074 0.465687 -0.144492 27.924009 
0.822000 0.443738 -0.356949 27.313622 
0.863291 0.466029 -0.193767 27.903465 
0.876001 0.472890 -0.094857 27.703033 
0.826619 0.446232 0.342898 28.957520 
0.351406 0.189699 0.916803 31.392008 
0.877308 0.479276 0.024997 28.491295 
0.701276 0.383109 0.601198 27.604111 
0.856849 0.473677 0.203567 29.156898 
0.845760 0.467547 0.257081 29.188591 
0.772195 0.426879 0.470626 27.818676 
0.628297 0.347331 0.696135 31.070160 
0.135798 0.075071 0.987888 29.740118 
0.707764 0.395894 -0.585097 27.356535 
0.791466 0.442713 -0.421410 25.920441 
0.864206 0.483401 0.139543 28.879049 
0.737110 0.412309 0.535416 27.772680 
0.582525 0.325840 0.744643 32.109974 
0.109191 0.061796 -0.992098 26.807497 
0.343549 0.194428 -0.918788 26.935658 
0.540983 0.306165 -0.783327 26.461395 
0.606339 0.343152 -0.717356 29.238106 
0.837526 0.479535 -0.261909 27.375721 
0.866735 0.496259 -0.049979 27.864042 
0.652431 0.373557 0.659385 29.782770 
0.490578 0.280886 0.824886 32.005020 
0.757309 0.438649 -0.483807 26.481770 
0.798691 0.462618 0.384808 28.470623 
0.227301 0.131657 0.964884 30.516037 
0.860694 0.504295 0.069943 27.986992 
0.822986 0.482201 0.300293 28.781244 
0.180533 0.105777 0.977865 29.607098 
0.496899 0.294489 -0.816314 26.757471 
0.813851 0.482331 -0.324043 27.092455 
0.390215 0.231262 0.891207 31.639582 
0.717441 0.430056 -0.548024 27.236034 
0.845345 0.506725 -0.169182 27.648737 
0.774177 0.464065 0.430458 27.596733 
0.519617 0.311474 0.795602 32.035702 
0.625687 0.379321 -0.681639 29.238106 
0.789280 0.478498 -0.384808 26.894672 
0.834517 0.505923 -0.218230 27.604111 
0.848978 0.514690 -0.119712 27.851685 
0.855117 0.518412 -0.005000 28.148775 
0.700903 0.424920 0.572867 28.049746 
0.652047 0.399773 -0.644218 27.628868 
0.839504 0.514704 0.174108 28.305573 
0.830074 0.508923 0.227978 28.354593 
0.737710 0.452294 0.501213 28.031490 
0.844287 0.523463 0.114747 28.099260 
0.798373 0.494996 0.342898 28.611300 
0.666170 0.413030 0.620986 27.769159 
0.426567 0.264474 0.864925 31.453205 
0.439809 0.275738 -0.854714 26.539537 
0.757295 0.474786 -0.448423 26.316721 
0.551041 0.349325 -0.757843 31.119675 
0.672363 0.426236 -0.605186 27.703140 
0.588431 0.373028 0.717356 31.763371 
0.806746 0.517099 -0.285952 27.207991 
0.839534 0.538115 -0.074930 27.851685 
0.261472 0.167595 0.950549 31.218704 
0.721931 0.467844 -0.509841 27.236206 
0.838521 0.543400 0.039989 27.851685 
0.807660 0.523400 0.271547 28.586157 
0.614028 0.397918 0.681639 30.525496 
0.541133 0.350679 0.764329 32.060459 
0.364432 0.238764 -0.900100 26.490023 
0.772052 0.505824 0.384808 28.445866 
0.741938 0.486094 0.461779 27.554596 
0.149912 0.099293 -0.983701 26.841238 
0.223017 0.147713 -0.963558 26.838432 
0.274726 0.181961 -0.944148 27.183233 
0.780268 0.516802 -0.352274 27.521585 
0.701903 0.464897 0.539632 28.175182 
0.572932 0.383610 -0.724287 29.287621 
0.815192 0.545817 -0.193767 28.297319 
0.504997 0.341793 -0.792563 28.156528 
0.681154 0.461020 -0.568762 27.752655 
0.754475 0.510645 -0.412321 26.877890 
0.803418 0.543770 -0.242556 27.505079 
0.819458 0.554627 -0.144492 28.808186 
0.827776 0.560257 -0.029996 28.000231 
0.818849 0.554215 0.149438 28.427780 
0.810808 0.548772 0.203567 28.578697 
0.822356 0.562604 0.084898 28.049746 
0.783438 0.535979 0.314567 28.941015 
0.664454 0.454578 0.593177 27.604111 
0.449398 0.307449 0.838759 31.812885 
0.306744 0.209855 0.928369 31.094917 
0.394903 0.273076 -0.877200 26.542377 
0.626427 0.433176 0.648034 29.733255 
0.608040 0.424971 -0.670587 28.198290 
0.721265 0.504105 -0.475032 26.415751 
0.342281 0.239226 0.908633 31.301229 
0.454961 0.321379 -0.830497 26.613810 
0.632525 0.446808 -0.632673 27.802170 
0.740707 0.523226 0.421410 28.693439 
0.708812 0.500696 0.496880 28.013186 
0.478419 0.337949 0.810497 32.226376 
0.772562 0.551539 -0.314567 27.108959 
0.809812 0.578132 -0.099833 28.082756 
0.813787 0.580970 0.014999 28.099260 
0.788577 0.562972 0.247404 29.040045 
0.757540 0.546553 0.356949 28.594410 
0.547299 0.394868 0.737931 31.466280 
0.684605 0.499156 -0.531186 27.769159 
0.302946 0.223211 -0.926499 26.762356 
0.744618 0.548635 -0.380188 27.108959 
0.575160 0.423779 0.699716 31.169189 
0.379453 0.279581 0.881958 31.512085 
0.529370 0.394139 -0.751280 27.315273 
0.773037 0.575560 -0.266731 27.554596 
0.783629 0.583446 -0.213347 27.916117 
0.796328 0.592901 0.119712 28.346834 
0.789845 0.588074 0.174108 28.676935 
0.666494 0.496234 0.556361 27.926079 
0.640955 0.482219 -0.597195 27.455564 
0.717800 0.540033 -0.439462 26.465265 
0.788247 0.593033 -0.164252 27.587925 
0.797891 0.600289 -0.054972 27.785666 
0.797662 0.600117 0.059964 28.346834 
0.499852 0.376061 0.780209 31.575863 
0.565947 0.430235 -0.703279 27.455564 
0.761695 0.579044 0.290740 28.445866 
0.707952 0.538188 0.457338 27.802170 
0.626502 0.481231 0.613117 27.851685 
0.410084 0.318268 -0.854714 26.514780 
0.726084 0.563517 0.394019 28.742954 
0.682902 0.535496 -0.496880 27.760798 
0.767950 0.602186 0.218230 29.059404 
0.586390 0.459817 0.666870 30.933994 
0.462289 0.366250 -0.807558 27.000195 
0.736301 0.583337 -0.342898 27.554596 
0.778185 0.616520 -0.119712 27.752655 
0.783782 0.620955 -0.010000 28.198290 
0.672291 0.532625 0.514136 28.049746 
0.403526 0.319695 0.857299 31.788128 
0.586940 0.469801 -0.659385 27.133718 
0.646541 0.517508 -0.560509 27.900406 
0.736015 0.589125 0.333487 28.396351 
0.707113 0.577687 -0.407760 26.514780 
0.739831 0.604416 -0.295520 26.960415 
0.751293 0.613780 -0.242556 27.108959 
0.770927 0.629820 0.094857 28.247805 
0.765723 0.625569 0.149438 28.433460 
0.434579 0.355036 0.827702 31.527884 
0.346393 0.285891 -0.893464 26.663324 
0.485432 0.400644 -0.777072 27.033484 
0.756629 0.624473 -0.193767 27.257505 
0.765895 0.638585 -0.074930 27.802170 
0.767583 0.639993 0.034993 28.148775 
0.741243 0.618031 0.261909 28.495380 
0.693253 0.578019 0.430458 27.406050 
0.627326 0.523050 0.576959 28.148775 
0.532347 0.443858 0.720831 31.763371 
0.171235 0.144229 -0.974616 26.914412 
0.521792 0.439499 -0.731146 27.529837 
0.599500 0.504952 -0.620986 27.224495 
0.678411 0.571418 -0.461779 26.514780 
0.501904 0.422748 0.754571 31.961430 
0.670194 0.570249 0.475032 28.099260 
0.258145 0.219648 0.940806 30.545191 
0.211058 0.179584 0.960835 30.477722 
0.743989 0.639480 0.193767 28.742954 
0.704264 0.605335 0.370920 28.742954 
0.584884 0.502724 0.636537 29.807528 
0.227323 0.197375 -0.953607 26.990362 
0.641754 0.557210 -0.526943 27.325764 
0.746614 0.648256 -0.149438 27.511217 
0.454441 0.394573 0.798621 31.773304 
0.332375 0.288588 0.897911 31.531996 
0.415646 0.364549 -0.833272 26.811871 
0.539729 0.473379 -0.696135 27.967220 
0.698175 0.612347 -0.370920 27.158476 
0.751467 0.659088 -0.029996 28.198290 
0.715970 0.627954 0.305059 28.544895 
0.296776 0.260292 0.918788 31.309269 
0.634170 0.561845 0.531186 28.037336 
0.545111 0.482943 0.685289 31.255842 
0.604309 0.540807 -0.585097 27.777412 
0.704967 0.630887 -0.324043 27.257505 
0.718177 0.642710 -0.266731 27.257505 
0.739816 0.662074 0.119712 28.495380 
0.723951 0.654424 -0.218230 27.777412 
0.740014 0.668945 0.069943 28.313826 
0.298281 0.272357 -0.914795 27.024321 
0.361017 0.329641 -0.872355 26.564295 
0.560026 0.511354 -0.651834 27.719645 
0.666550 0.608619 -0.430458 27.406050 
0.734401 0.670574 -0.104807 28.000231 
0.717303 0.654961 0.237703 28.675730 
0.168927 0.154245 0.973485 29.634226 
0.735005 0.677896 0.014999 27.901199 
0.671201 0.619049 0.407760 28.594410 
0.587409 0.541767 0.601198 27.759216 
0.356153 0.328480 0.874789 31.317736 
0.254874 0.237440 -0.937369 26.713108 
0.636783 0.593225 -0.492535 27.316366 
0.432461 0.406937 -0.804599 26.985813 
0.475152 0.447108 -0.757843 27.641247 
0.718380 0.675981 0.164252 28.542377 
0.684118 0.643741 0.342898 28.792471 
0.649304 0.610982 0.452886 27.802170 
0.713765 0.678399 -0.174108 27.818676 
0.629027 0.597859 0.496880 28.035086 
0.388576 0.369323 0.844162 31.565310 
0.720084 0.691291 -0.059964 27.736151 
0.492142 0.472463 0.731146 31.392008 
0.456844 0.438576 0.773915 31.862400 
0.129714 0.124527 0.983701 29.952133 
0.036452 0.035346 -0.998710 26.927517 
0.564936 0.547800 -0.617059 27.951548 
0.598531 0.580376 -0.552199 27.476379 
0.661240 0.641183 -0.389418 26.811871 
0.688951 0.668054 0.281157 28.792471 
0.594537 0.576503 0.560509 27.555914 
0.544436 0.527922 0.651834 29.771986 
0.492592 0.482453 -0.724287 27.480322 
0.682512 0.668464 -0.295520 27.389545 
0.667813 0.660641 -0.342898 27.505079 
0.688813 0.681416 -0.247404 27.604111 
0.707708 0.700108 0.094857 28.544895 
0.517588 0.517176 -0.681639 28.195023 
0.629075 0.628574 -0.457338 26.316721 
0.701419 0.700861 -0.129634 28.272242 
0.691848 0.691297 0.208460 28.767694 
0.408594 0.408268 0.816314 31.637516 
0.703766 0.710273 -0.014999 28.148775 
0.703282 0.709785 0.039989 27.851685 
0.650993 0.657012 0.380188 29.238106 
0.369484 0.376649 -0.849481 26.762356 
0.507592 0.517434 0.688921 30.995550 
0.630347 0.649029 0.425939 27.381292 
0.308200 0.320526 -0.895699 26.712841 
0.594488 0.618263 -0.514136 26.441219 
0.678598 0.705737 -0.203567 28.569653 
0.686330 0.713778 0.139543 29.139074 
0.656827 0.683096 0.319309 28.941015 
0.545421 0.567234 0.617059 28.320257 
0.559158 0.587370 -0.585097 27.144730 
0.687009 0.721672 -0.084898 28.247805 
0.608367 0.639062 0.470626 27.950716 
0.587814 0.617473 0.522687 27.876442 
0.426343 0.452361 -0.783327 27.662218 
0.522365 0.554244 -0.648034 28.076660 
0.623431 0.661478 -0.416871 27.009930 
0.663690 0.704193 0.252245 28.247805 
0.089453 0.094913 0.991458 30.362757 
0.178242 0.192949 -0.964884 26.977547 
0.386382 0.418264 -0.822049 26.724321 
0.630152 0.682149 -0.370920 27.026436 
0.644110 0.697259 -0.314567 27.604111 
0.447836 0.484789 0.751280 31.876066 
0.307791 0.333188 0.891207 31.265850 
0.445407 0.487022 -0.751280 28.496628 
0.650426 0.711197 -0.266731 27.769159 
0.666256 0.728506 -0.159318 27.394953 
0.672979 0.735857 0.074930 27.752655 
0.663360 0.725339 0.183947 28.000231 
0.555087 0.606950 0.568762 27.653625 
0.247688 0.270831 0.930216 30.932922 
0.209599 0.229182 0.950549 30.846420 
0.100828 0.111362 -0.988652 26.959236 
0.670641 0.740704 -0.039989 27.455564 
0.671102 0.741213 0.014999 27.604111 
0.411932 0.454968 0.789504 31.771000 
0.339764 0.375259 0.862404 31.565310 
0.472155 0.526752 -0.706825 28.702337 
0.585754 0.653486 -0.479426 26.316721 
0.623493 0.695589 0.356949 27.802170 
0.506178 0.564709 0.651834 29.683741 
0.465026 0.518798 0.717356 31.133341 
0.324480 0.365662 -0.872355 26.910900 
0.555186 0.625650 -0.548024 26.347513 
0.631473 0.718827 0.290740 27.455564 
0.603961 0.687509 0.403190 27.207991 
0.362126 0.412220 0.836026 31.515795 
0.249970 0.287435 -0.924606 26.787231 
0.516389 0.593785 -0.617059 26.217690 
0.639678 0.735551 -0.223106 26.465265 
0.651884 0.749587 -0.114747 26.729345 
0.651499 0.749144 0.119712 27.455564 
0.635256 0.737886 0.227978 27.495655 
0.583163 0.677376 0.448423 27.455564 
0.566198 0.657670 0.496880 27.686401 
0.582648 0.683662 -0.439462 26.658373 
0.203328 0.241010 -0.948985 26.953047 
0.478352 0.567003 -0.670587 26.366236 
0.605732 0.717990 -0.342898 26.366236 
0.515281 0.610775 0.601198 27.604111 
0.589142 0.705451 -0.394019 25.524481 
0.612368 0.733262 -0.295520 26.390993 
0.640196 0.766584 0.049979 27.059444 
0.539656 0.646196 0.539632 27.344906 
0.466820 0.558980 0.685289 30.376949 
0.626857 0.758287 -0.179030 26.824163 
0.635591 0.768851 -0.069943 26.869873 
0.637079 0.770652 -0.014999 27.240999 
0.628498 0.760271 0.164252 27.603809 
0.263173 0.318351 0.910710 30.631126 
0.515421 0.629873 -0.581035 26.415751 
0.543178 0.663794 -0.514136 26.381233 
0.598085 0.730893 0.328769 27.496828 
0.332090 0.409999 -0.849481 26.910900 
0.376284 0.464560 -0.801620 26.787113 
0.165333 0.204119 0.964884 30.141754 
0.398550 0.497111 -0.770739 27.512613 
0.424450 0.529416 -0.734548 26.613810 
0.579730 0.723097 0.375559 27.670130 
0.400956 0.500112 0.767543 31.821321 
0.366393 0.457002 0.810497 32.035702 
0.601509 0.757997 -0.252245 27.009930 
0.618807 0.779795 0.094857 27.455564 
0.599911 0.755983 0.261909 27.703140 
0.479414 0.604138 0.636537 27.752655 
0.062155 0.079135 -0.994924 26.976681 
0.612065 0.779270 -0.134590 27.076132 
0.560161 0.713185 0.421410 27.406050 
0.419135 0.533634 0.734548 31.317736 
0.122411 0.157466 -0.979908 26.984285 
0.259082 0.333275 -0.906534 26.712841 
0.471390 0.606381 -0.640385 26.316721 
0.541528 0.696605 -0.470626 26.333225 
0.600262 0.772159 0.208460 27.413191 
0.541528 0.696605 0.470626 27.323524 
0.435647 0.566223 -0.699716 26.465265 
0.499814 0.649622 0.572867 27.505079 
0.548117 0.719822 -0.425939 26.052641 
0.563720 0.740313 -0.366273 26.234196 
0.605699 0.795443 0.019999 27.191484 
0.290869 0.381988 0.877200 31.416765 
0.503412 0.668016 -0.548024 26.363937 
0.570329 0.756814 -0.319309 26.283710 
0.588613 0.781076 -0.208460 26.804577 
0.601225 0.797812 -0.044985 27.195612 
0.595946 0.790807 0.139543 27.322287 
0.516199 0.684984 0.514136 27.488173 
0.314980 0.417971 0.852108 31.726234 
0.566412 0.767464 0.300293 27.414303 
0.275380 0.377059 -0.884303 26.811871 
0.469521 0.642884 -0.605186 26.316721 
0.587129 0.803917 -0.094857 26.873764 
0.553013 0.757204 0.347590 27.618965 
0.439495 0.601772 0.666870 28.099260 
0.331120 0.458174 -0.824886 26.589052 
0.505383 0.699302 -0.505533 27.159025 
0.584506 0.808785 0.064954 27.089499 
0.416413 0.576193 0.703279 29.980829 
0.047274 0.065414 0.996738 30.953899 
0.559030 0.781737 -0.276356 26.304342 
0.573783 0.802368 -0.164252 26.631756 
0.564312 0.789125 0.242556 27.015760 
0.534626 0.747612 0.394019 27.802170 
0.461303 0.645077 0.609159 27.851685 
0.567753 0.802384 0.183947 27.111725 
0.517568 0.731460 0.443948 27.641247 
0.354505 0.501009 0.789504 31.639582 
0.198493 0.280523 0.939099 30.723555 
0.378514 0.540653 -0.751280 26.514780 
0.425455 0.607701 -0.670587 26.366236 
0.122805 0.175410 0.976806 29.819002 
0.201015 0.290199 -0.935616 27.042940 
0.351721 0.507768 -0.786425 26.910900 
0.506378 0.731042 -0.457338 26.069145 
0.522224 0.753918 -0.398609 25.452253 
0.569388 0.822008 -0.010000 26.713390 
0.476296 0.687613 0.548024 27.386858 
0.530051 0.773451 -0.347590 25.895844 
0.561883 0.819900 0.109778 26.780910 
0.373088 0.544411 0.751280 31.169189 
0.317228 0.462900 0.827702 31.969631 
0.545744 0.804952 -0.232843 26.379784 
0.489756 0.722372 0.488177 27.034687 
0.247014 0.364336 0.897911 30.995888 
0.284374 0.423990 -0.859862 26.564295 
0.388081 0.578613 -0.717356 26.663324 
0.456562 0.680716 -0.572867 26.465265 
0.556020 0.829003 -0.059964 26.613810 
0.548549 0.826771 -0.124675 26.514780 
0.530562 0.799659 0.281157 26.589052 
0.423175 0.644782 -0.636537 26.465265 
0.548354 0.835514 0.034993 26.514780 
0.518188 0.789552 0.328769 26.729372 
0.421423 0.642113 0.640385 27.158476 
0.214072 0.326177 0.920751 30.773069 
0.153507 0.236464 -0.959437 27.015865 
0.461333 0.710643 -0.531186 26.311089 
0.518548 0.798778 -0.305059 26.217690 
0.531379 0.818543 0.218230 26.820833 
0.530579 0.826328 -0.188859 26.374487 
0.533825 0.831383 0.154380 27.136614 
0.500751 0.779874 0.375559 27.634230 
0.438165 0.682402 0.585097 27.802170 
0.486162 0.765545 0.421410 27.855307 
0.394072 0.620533 0.677972 28.099260 
0.464179 0.739068 -0.488177 26.287729 
0.480063 0.764359 -0.430458 25.637848 
0.368639 0.586949 0.720831 29.238106 
0.266942 0.425027 0.864925 31.367250 
0.488000 0.785692 -0.380188 25.739044 
0.527514 0.849311 -0.019999 26.465265 
0.525932 0.846764 0.079915 26.729345 
0.449809 0.724203 0.522687 27.301992 
0.209001 0.340280 -0.916803 26.935658 
0.505097 0.822363 -0.261909 27.009930 
0.155063 0.252463 0.955101 30.302677 
0.301951 0.497173 -0.813416 26.960415 
0.376262 0.619528 -0.688921 26.366236 
0.414812 0.683002 -0.601198 26.382740 
0.516998 0.851255 -0.089879 26.316721 
0.459234 0.756144 0.466208 27.455564 
0.329997 0.549526 -0.767543 26.819687 
0.497516 0.828485 0.257081 27.009930 
0.326029 0.542918 0.773915 31.180185 
0.504793 0.850207 -0.149438 26.416277 
0.303160 0.510602 0.804599 31.218704 
0.225097 0.383478 -0.895699 27.078878 
0.419226 0.714199 -0.560509 26.415751 
0.476391 0.811587 -0.338197 25.871084 
0.506062 0.862135 0.024997 26.663324 
0.497110 0.846885 0.188859 26.824249 
0.482091 0.821297 0.305059 26.811871 
0.340569 0.586901 -0.734548 26.613810 
0.489805 0.844078 -0.218230 26.407183 
0.497986 0.858176 0.124675 26.712841 
0.396499 0.683284 0.613117 27.373039 
0.268839 0.468671 -0.841471 26.811871 
0.377339 0.657821 -0.651834 26.415751 
0.465675 0.811819 0.352274 26.910900 
0.412063 0.718355 0.560509 27.075321 
0.421772 0.743875 -0.518418 26.433716 
0.438624 0.773596 -0.457338 25.970116 
0.452349 0.797804 0.398609 27.554596 
0.374045 0.659699 0.651834 27.653625 
0.268564 0.473663 0.838759 31.664341 
0.446384 0.796538 -0.407760 25.937105 
0.488261 0.871265 -0.049979 26.564295 
0.080682 0.143972 0.986287 30.521563 
0.462865 0.835718 -0.295520 26.613810 
0.483318 0.872647 0.069943 26.993425 
0.347831 0.628020 0.696135 27.554596 
0.323389 0.583889 0.744643 28.544895 
0.234719 0.428839 -0.872355 26.811871 
0.416661 0.761251 0.496880 27.108959 
0.472590 0.873780 -0.114747 26.613810 
0.463205 0.856427 0.227978 27.106293 
0.426281 0.788159 0.443948 27.356535 
0.222125 0.410692 0.884303 31.565310 
0.110110 0.206041 -0.972329 26.985542 
0.463713 0.867709 -0.179030 26.564295 
0.151652 0.287218 -0.945784 26.762356 
0.284719 0.539240 -0.792563 26.663324 
0.367421 0.695873 -0.617059 26.217690 
0.434466 0.822851 -0.366273 26.069145 
0.466907 0.884292 -0.005000 26.811871 
0.460949 0.873008 0.159318 27.105410 
0.448729 0.849865 0.276356 27.059444 
0.197099 0.373293 0.906534 30.974560 
0.327157 0.627189 -0.706825 26.712841 
0.447530 0.857956 -0.252245 26.465265 
0.433331 0.840964 0.324043 27.059444 
0.163840 0.317963 0.933839 30.773069 
0.370485 0.727915 -0.576959 26.415751 
0.395874 0.777796 -0.488177 26.068087 
0.450855 0.885821 0.109778 26.894396 
0.421239 0.827633 0.370920 27.059444 
0.383102 0.752704 0.535416 27.217339 
0.367850 0.722736 0.585097 27.125465 
0.114767 0.225490 0.967462 29.788908 
0.293032 0.582929 -0.757843 26.702417 
0.404422 0.804517 -0.434966 25.821569 
0.277424 0.551880 0.786425 30.376949 
0.329864 0.664457 -0.670587 26.613810 
0.375556 0.756497 -0.535416 27.099056 
0.420669 0.847369 -0.324043 26.712841 
0.443411 0.893181 -0.074930 26.564295 
0.444306 0.894982 0.039989 26.762356 
0.347150 0.699278 0.624897 27.307020 
0.250644 0.511286 -0.822049 26.746628 
0.326537 0.666098 0.670587 27.406050 
0.254250 0.518641 0.816314 31.330204 
0.224722 0.458407 0.859862 31.383755 
0.431110 0.890655 -0.144492 26.532492 
0.426998 0.882158 0.198669 27.356535 
0.396020 0.818160 0.416871 27.207991 
0.384417 0.794188 0.470626 27.653625 
0.301976 0.623870 0.720831 27.207991 
0.160251 0.335337 -0.928369 27.059444 
0.421249 0.881494 -0.213347 26.596905 
0.072518 0.153720 -0.985450 27.034496 
0.392144 0.831247 -0.394019 25.871084 
0.413396 0.876296 0.247404 26.564295 
0.176280 0.378564 -0.908633 27.151428 
0.405104 0.869966 -0.281157 26.564295 
0.421942 0.906126 -0.029996 26.415751 
0.417392 0.896355 0.149438 26.696487 
0.218555 0.475548 -0.852108 27.009930 
0.398943 0.868051 0.295520 26.960415 
0.274033 0.596262 0.754571 27.950716 
0.318560 0.702382 -0.636537 26.514780 
0.411725 0.907797 0.079915 26.762356 
0.388004 0.855496 0.342898 26.910900 
0.278679 0.622707 -0.731146 26.465265 
0.361379 0.807499 -0.466208 25.920601 
0.351409 0.785222 0.509841 27.047247 
0.338288 0.755904 0.560509 27.294868 
0.186806 0.423079 -0.886627 27.084202 
0.323981 0.733753 -0.597195 26.217690 
0.378026 0.856154 -0.352274 26.415751 
0.401694 0.909757 -0.104807 26.646820 
0.286690 0.658183 -0.696135 26.316721 
0.343539 0.788697 -0.509841 26.023129 
0.399295 0.916700 0.014999 26.910900 
0.243832 0.567522 -0.786425 26.822313 
0.328014 0.763459 -0.556361 26.316721 
0.388373 0.903944 -0.179030 26.675703 
0.363589 0.846260 0.389418 27.009930 
0.353717 0.823283 0.443948 27.240999 
0.315445 0.734204 0.601198 27.307020 
0.378501 0.893255 -0.242556 26.861385 
0.383131 0.904181 0.188859 27.059444 
0.299657 0.707186 0.640385 27.307020 
0.281449 0.664213 0.692537 27.653625 
0.106842 0.255697 -0.960835 27.030617 
0.348821 0.834805 -0.425939 25.970116 
0.209929 0.502407 0.838759 31.515795 
0.121570 0.290945 0.948985 30.302677 
0.362182 0.879112 -0.309816 26.960415 
