ply
format ascii 1.0
comment Created by CloudCompare v2.14.alpha (Nov 11 2011)
comment Created 2025-12-04T10:54:54
obj_info Generated by CloudCompare!
element vertex 1240
property float x
property float y
property float z
property float intensity
end_header
0.720670 0.658036 -0.218230 27.777412 
0.738321 0.674153 0.019999 28.049746 
0.731243 0.667691 0.139543 28.742954 
0.706568 0.645160 0.290740 28.594410 
0.651575 0.594946 0.470626 28.049746 
0.625671 0.571294 0.531186 27.736076 
0.519768 0.474594 0.710353 31.268221 
0.498375 0.455061 0.737931 31.664341 
0.467664 0.427019 0.773915 31.845896 
0.328369 0.299830 0.895699 31.354830 
0.274459 0.250606 0.928369 31.304152 
0.029981 0.027651 -0.999168 26.916889 
0.375281 0.346122 -0.859862 26.861385 
0.456938 0.421434 -0.783327 26.989126 
0.496093 0.457547 -0.737931 27.170855 
0.685343 0.632092 -0.361615 27.158476 
0.721859 0.665771 -0.188859 27.579353 
0.731773 0.674915 0.094857 28.148775 
0.712236 0.656895 0.247404 28.396351 
0.674164 0.621782 0.398609 29.386650 
0.637923 0.588357 0.496880 28.013365 
0.381583 0.351934 0.854714 31.367250 
0.392250 0.365418 -0.844162 26.663324 
0.545236 0.507940 -0.666870 27.670130 
0.573514 0.534283 -0.620986 27.455647 
0.722343 0.672932 -0.159318 27.391865 
0.721141 0.671813 0.169182 28.544895 
0.660430 0.615254 0.430458 27.257505 
0.601816 0.560649 0.568762 27.757412 
0.584692 0.544697 0.601198 27.700560 
0.407567 0.379688 0.830497 31.812885 
0.557013 0.524138 -0.644218 27.950716 
0.584144 0.549667 -0.597195 28.371246 
0.628358 0.591272 -0.505533 27.319756 
0.669356 0.629850 -0.394019 27.554596 
0.722126 0.679506 -0.129634 27.983700 
0.532868 0.501418 0.681639 30.946373 
0.444093 0.417883 0.792563 32.035702 
0.177209 0.166750 0.969944 30.002394 
0.130953 0.123224 0.983701 29.924376 
0.091372 0.085980 0.992098 30.475981 
0.406755 0.386601 -0.827702 26.712841 
0.504998 0.479976 -0.717356 28.247805 
0.636103 0.604585 -0.479426 27.632948 
0.697600 0.663035 -0.271547 27.653625 
0.721215 0.685480 -0.099833 28.033239 
0.723532 0.687682 -0.059964 28.264311 
0.724102 0.688224 0.044985 28.000231 
0.710388 0.675189 0.198669 28.412855 
0.688040 0.653949 0.314567 28.841986 
0.678372 0.644759 0.352274 28.693439 
0.207822 0.197524 0.958016 30.525496 
0.517888 0.497180 -0.696135 28.148775 
0.643162 0.617444 -0.452886 27.059444 
0.685888 0.658462 -0.309816 27.108959 
0.700706 0.672687 -0.237703 27.604111 
0.721058 0.692225 -0.029996 28.132271 
0.716195 0.687557 0.119712 28.346834 
0.694277 0.666515 0.271547 28.495380 
0.563188 0.540668 0.624897 28.816914 
0.473384 0.454456 0.754571 31.689098 
0.250075 0.242490 -0.937369 26.859680 
0.588434 0.570586 -0.572867 27.617931 
0.604410 0.586077 -0.539632 27.115780 
0.649531 0.629830 -0.425939 27.108959 
0.674386 0.653930 -0.342898 26.663324 
0.702139 0.680842 -0.208460 27.733030 
0.717911 0.696135 0.000000 28.099260 
0.715892 0.694178 0.074930 28.082756 
0.699005 0.677804 0.227978 28.362770 
0.664002 0.643862 0.380188 28.445866 
0.640066 0.620652 0.452886 27.505079 
0.600505 0.582291 0.548024 27.846607 
0.546769 0.530185 0.648034 29.749760 
0.702879 0.688411 -0.179030 27.777412 
0.706399 0.691859 0.149438 28.470007 
0.650865 0.637468 0.412321 28.297319 
0.626963 0.614059 0.479426 27.703140 
0.612765 0.600153 0.514136 27.970581 
0.492592 0.482453 0.724287 31.639582 
0.658874 0.651798 -0.375559 26.910900 
0.702931 0.695382 -0.149438 27.835529 
0.576525 0.570334 0.585097 27.683657 
0.507892 0.502438 0.699716 31.015917 
0.353730 0.349931 0.867423 31.344645 
0.283896 0.280847 0.916803 31.218704 
0.244302 0.241679 0.939099 31.127148 
0.223055 0.222878 -0.948985 27.046436 
0.308197 0.307951 -0.900100 26.974874 
0.414348 0.414018 -0.810497 27.185163 
0.450713 0.450354 -0.770739 28.325838 
0.469516 0.469142 -0.747971 27.802170 
0.702301 0.701742 -0.119712 28.099260 
0.705126 0.704565 -0.079915 28.198290 
0.695960 0.695405 0.179030 28.643925 
0.675794 0.675256 0.295520 28.742954 
0.666894 0.666363 0.333487 28.198290 
0.417209 0.416877 0.807558 31.695950 
0.429198 0.433167 -0.792563 28.025131 
0.517388 0.522172 -0.677972 27.960241 
0.545071 0.550111 -0.632673 28.434465 
0.601877 0.607442 -0.518418 26.740475 
0.644100 0.650056 -0.403190 26.267204 
0.673441 0.679668 -0.290740 28.000231 
0.680189 0.686478 -0.257081 28.049746 
0.702966 0.709466 -0.049979 27.851685 
0.703625 0.710131 0.024997 28.272562 
0.700329 0.706804 0.099833 29.023540 
0.681085 0.687383 0.252245 28.742954 
0.445738 0.449859 0.773915 31.730360 
0.377323 0.380812 0.844162 31.416765 
0.325518 0.328528 0.886627 31.218704 
0.330064 0.336464 -0.881958 26.613810 
0.528780 0.539034 -0.655617 28.443897 
0.555359 0.566128 -0.609159 27.875704 
0.609453 0.621270 -0.492535 26.879910 
0.662499 0.675345 -0.324043 27.307020 
0.681844 0.695065 -0.227978 28.198290 
0.700145 0.713721 -0.019999 28.495380 
0.699226 0.712784 0.054972 28.643925 
0.684900 0.698181 0.208460 29.210951 
0.652895 0.665555 0.361615 29.089560 
0.630569 0.642796 0.434966 26.613810 
0.555359 0.566128 0.609159 27.935358 
0.521834 0.531953 0.666870 30.222950 
0.298783 0.304577 0.904412 30.897251 
0.284596 0.293031 -0.912764 26.652393 
0.346661 0.356936 -0.867423 26.613810 
0.477849 0.492012 -0.727726 28.792471 
0.578922 0.596080 -0.556361 26.960415 
0.616359 0.634627 -0.466208 26.465265 
0.682819 0.703057 -0.198669 28.668682 
0.690828 0.711303 0.129634 29.188591 
0.640345 0.659324 0.394019 28.808975 
0.467614 0.481473 0.741297 31.757637 
0.117806 0.122518 -0.985450 26.952362 
0.362751 0.377258 -0.852108 26.613810 
0.490299 0.509907 -0.706825 28.855343 
0.562088 0.584567 -0.585097 27.582863 
0.622595 0.647494 -0.439462 26.613810 
0.647452 0.673345 -0.356949 27.075951 
0.683120 0.710440 -0.169182 28.841986 
0.614786 0.639373 0.461779 27.901199 
0.603210 0.627334 0.492535 27.793917 
0.587242 0.610727 0.531186 27.901199 
0.573999 0.596955 0.560509 27.532598 
0.536759 0.558225 0.632673 29.381674 
0.391815 0.407485 0.824886 31.759901 
0.259456 0.272547 -0.926499 26.806833 
0.378321 0.397409 -0.836026 26.861385 
0.682752 0.717201 -0.139543 28.151495 
0.686054 0.720669 -0.099833 28.445866 
0.680692 0.715036 0.159318 28.341663 
0.662646 0.696080 0.276356 28.742954 
0.654496 0.687519 0.314567 28.693439 
0.633054 0.671688 -0.384808 26.712841 
0.684189 0.725943 -0.069943 27.917706 
0.685860 0.727717 0.005000 28.099260 
0.683675 0.725398 0.079915 28.247805 
0.667017 0.707724 0.232843 28.435524 
0.480303 0.509615 0.713864 30.866314 
0.418236 0.443760 0.792563 31.845369 
0.576196 0.617517 -0.535416 26.836628 
0.649702 0.696295 -0.305059 27.868191 
0.656587 0.703673 -0.271547 27.703140 
0.681675 0.730561 -0.039989 28.000231 
0.681803 0.730698 0.034993 28.247805 
0.669944 0.717988 0.188859 28.173532 
0.640860 0.686818 0.342898 28.247805 
0.620116 0.664587 0.416871 27.505079 
0.553256 0.592932 0.585097 27.604111 
0.496842 0.532473 0.685289 30.446898 
0.138661 0.150102 -0.978899 26.964851 
0.184780 0.200027 -0.962209 26.979252 
0.442716 0.479246 -0.757843 30.349487 
0.583741 0.631908 -0.509841 26.643822 
0.616785 0.667679 -0.416871 26.415751 
0.639713 0.692498 -0.333487 27.604111 
0.658293 0.712612 -0.242556 27.851685 
0.674456 0.730108 0.109778 28.049746 
0.628886 0.680778 0.375559 27.777412 
0.440139 0.476457 0.761095 31.863438 
0.349334 0.378159 0.857299 31.713856 
0.255339 0.276408 0.926499 31.337162 
0.387055 0.423218 -0.819192 26.593018 
0.422147 0.461590 -0.780209 27.883120 
0.489174 0.534879 -0.688921 28.616758 
0.516173 0.564401 -0.644218 27.974152 
0.590634 0.645819 -0.483807 26.636332 
0.659338 0.720942 -0.213347 27.336922 
0.511800 0.559619 0.651834 29.775055 
0.209599 0.229182 0.950549 30.846420 
0.147802 0.161612 0.975723 29.764135 
0.401253 0.443172 -0.801620 28.116623 
0.500144 0.552395 -0.666870 28.187628 
0.526084 0.581044 -0.620986 26.316721 
0.552045 0.609718 -0.568762 26.514780 
0.596873 0.659230 -0.457338 26.465265 
0.659725 0.728647 -0.183947 27.331778 
0.666351 0.735966 -0.119712 27.406050 
0.664611 0.734044 0.139543 27.826927 
0.648619 0.716381 0.257081 28.000231 
0.641201 0.708188 0.295520 28.000231 
0.601410 0.664241 0.443948 27.455564 
0.590615 0.652318 0.475032 27.703140 
0.579097 0.639596 0.505533 27.658892 
0.532276 0.587884 0.609159 28.544895 
0.325188 0.359161 0.874789 31.245113 
0.155931 0.173962 -0.972329 26.973633 
0.450454 0.502542 -0.737931 29.714636 
0.535369 0.597275 -0.597195 26.333225 
0.621079 0.692896 -0.366273 26.861385 
0.659461 0.735716 -0.154380 27.277790 
0.664761 0.741629 -0.089879 27.207991 
0.667388 0.744559 -0.014999 27.455564 
0.666262 0.743303 0.059964 27.406050 
0.652095 0.727499 0.213347 27.788263 
0.563731 0.628917 0.535416 27.446205 
0.455357 0.508011 0.731146 31.436781 
0.390962 0.436169 0.810497 31.692743 
0.298105 0.335940 -0.893464 26.366236 
0.462426 0.521116 -0.717356 29.136518 
0.662537 0.746625 -0.059964 27.207991 
0.663657 0.747887 0.014999 27.257505 
0.654163 0.737189 0.169182 27.661877 
0.627918 0.707612 0.324043 27.950716 
0.608722 0.685980 0.398609 27.406050 
0.549668 0.619431 0.560509 27.478708 
0.361404 0.407272 0.838759 31.664341 
0.177547 0.200081 0.963558 30.327435 
0.063486 0.071543 0.995415 31.229156 
0.605284 0.689015 -0.398609 25.871084 
0.626479 0.713142 -0.314567 27.158476 
0.633361 0.720975 -0.281157 26.910900 
0.657312 0.748240 0.089879 27.653625 
0.616506 0.701789 0.356949 27.406050 
0.296421 0.337426 0.893464 30.872101 
0.219333 0.252206 -0.942489 26.771318 
0.315066 0.362288 -0.877200 26.613810 
0.548902 0.631170 -0.548024 26.776918 
0.590890 0.679451 -0.434966 26.799492 
0.634999 0.730171 -0.252245 26.811871 
0.508188 0.584354 0.632673 29.287621 
0.486803 0.559764 0.670587 30.178890 
0.468816 0.539081 0.699716 31.030626 
0.413032 0.474936 0.777072 31.793869 
0.268057 0.308233 0.912764 31.135548 
0.101823 0.117084 0.987888 30.138401 
0.049405 0.057387 -0.997129 26.961613 
0.330277 0.383635 -0.862404 26.861385 
0.349764 0.406270 -0.844162 26.762356 
0.556219 0.646079 -0.522687 26.341778 
0.612882 0.711897 -0.342898 26.531284 
0.635992 0.738740 -0.223106 26.415751 
0.647746 0.752393 0.119712 27.257505 
0.633737 0.736121 0.237703 27.546036 
0.627029 0.728329 0.276356 27.331778 
0.590294 0.685659 0.425939 26.986824 
0.529103 0.614582 0.585097 27.604111 
0.078163 0.091714 -0.992713 26.965736 
0.273812 0.321283 -0.906534 26.613810 
0.562902 0.660493 -0.496880 26.384090 
0.636347 0.746671 -0.193767 26.464073 
0.642738 0.754170 -0.134590 26.650526 
0.648243 0.760629 -0.034993 26.762356 
0.648121 0.760486 0.039989 26.861385 
0.636347 0.746671 0.193767 27.603495 
0.576831 0.676836 0.457338 27.505079 
0.566097 0.664242 0.488177 27.410177 
0.430523 0.505163 0.747971 31.667646 
0.194127 0.230103 -0.953607 26.977642 
0.254546 0.301719 -0.918788 26.886143 
0.413332 0.489932 -0.767543 29.050800 
0.460678 0.546053 -0.699716 27.009930 
0.486904 0.577140 -0.655617 26.514780 
0.524810 0.622071 -0.581035 26.415751 
0.568952 0.674393 -0.470626 26.118660 
0.636069 0.753948 -0.164252 26.941509 
0.641275 0.760119 -0.104807 26.696335 
0.644818 0.764319 -0.005000 27.158476 
0.637586 0.755746 0.149438 27.480322 
0.614090 0.727896 0.305059 27.414303 
0.596406 0.706935 0.380188 27.614014 
0.553073 0.655572 0.514136 27.534639 
0.390649 0.463046 0.795602 31.843336 
0.224617 0.266244 0.937369 30.889088 
0.393409 0.471077 -0.789504 27.628824 
0.471189 0.564212 -0.677972 26.514780 
0.496400 0.594400 -0.632673 26.118660 
0.592864 0.709908 -0.380188 25.809191 
0.639195 0.765386 -0.074930 26.891094 
0.639427 0.765664 0.069943 27.232748 
0.604303 0.723605 0.333487 27.703140 
0.537920 0.644117 0.543835 27.408663 
0.508341 0.608699 0.609159 27.703140 
0.362355 0.433892 0.824886 31.665466 
0.357549 0.432514 -0.827702 26.564295 
0.422897 0.511563 -0.747971 29.070055 
0.505291 0.611233 -0.609159 26.316721 
0.579149 0.700575 -0.416871 26.048513 
0.606780 0.734001 -0.305059 26.564295 
0.613210 0.741778 -0.271547 26.671577 
0.483191 0.584499 0.651834 29.304125 
0.443907 0.536979 0.717356 31.466280 
0.333463 0.403378 0.852108 31.416765 
0.229477 0.280434 -0.932039 26.945271 
0.370945 0.453315 -0.810497 26.737598 
0.434353 0.530804 -0.727726 27.009930 
0.614378 0.750804 -0.242556 26.985172 
0.630126 0.770049 0.099833 27.587605 
0.618026 0.755262 0.218230 27.718536 
0.612005 0.747904 0.257081 27.802170 
0.578250 0.706653 0.407760 27.546343 
0.523004 0.645701 -0.556361 26.316721 
0.562582 0.694564 -0.448423 26.324972 
0.614921 0.759181 -0.213347 26.850740 
0.629286 0.776916 0.019999 27.307020 
0.619799 0.765203 0.174108 27.691677 
0.517693 0.639143 0.568762 27.505079 
0.458383 0.565919 0.685289 30.376949 
0.313177 0.386648 0.867423 31.528173 
0.529974 0.661036 -0.531186 26.923838 
0.584312 0.728812 -0.356949 26.663324 
0.614845 0.766896 -0.183947 26.811798 
0.618955 0.772021 -0.144492 26.891943 
0.624737 0.779234 -0.049979 27.009930 
0.620241 0.773626 0.129634 27.521585 
0.599400 0.747631 0.285952 27.447313 
0.584312 0.728812 0.356949 27.703140 
0.563247 0.702537 0.434966 27.406050 
0.551916 0.688404 0.470626 27.789791 
0.403351 0.503100 0.764329 31.742043 
0.294825 0.367735 0.881958 31.478659 
0.536329 0.675860 -0.505533 26.447456 
0.587055 0.739782 -0.328769 26.754103 
0.617504 0.778153 -0.114747 27.034687 
0.621486 0.783170 -0.019999 27.034687 
0.620833 0.782348 0.049979 27.257505 
0.590054 0.743562 0.314567 27.653625 
0.539445 0.679786 0.496880 27.480322 
0.483347 0.609094 0.628793 27.851685 
0.239657 0.302006 0.922690 30.649282 
0.285671 0.363710 -0.886627 26.861385 
0.499107 0.635453 -0.589145 26.366236 
0.542070 0.690153 -0.479426 26.267204 
0.566492 0.721247 -0.398609 26.044388 
0.615456 0.783586 -0.084898 26.960415 
0.570122 0.725868 0.384808 27.678383 
0.526592 0.670447 0.522687 27.429655 
0.497281 0.633129 0.593177 27.653625 
0.419135 0.533634 0.734548 31.317736 
0.361805 0.460643 0.810497 31.664341 
0.266332 0.339088 0.902268 31.503416 
0.180056 0.229244 0.956570 30.343311 
0.321214 0.413199 -0.852108 26.910900 
0.431982 0.555689 -0.710353 26.960415 
0.459388 0.590943 -0.663135 26.547791 
0.586334 0.754242 -0.295520 26.539537 
0.592321 0.761944 -0.261909 26.671577 
0.611783 0.786979 0.079915 27.294641 
0.601512 0.773766 0.198669 27.415668 
0.596155 0.766875 0.237703 27.517458 
0.381510 0.490763 0.783327 31.822716 
0.116391 0.149722 0.981854 29.960199 
0.298110 0.387462 -0.872355 26.811871 
0.383810 0.498848 -0.777072 27.456438 
0.441998 0.574478 -0.688921 26.415751 
0.468352 0.608731 -0.640385 26.168175 
0.550403 0.715375 -0.430458 26.143417 
0.593030 0.770778 -0.232843 26.902647 
0.602480 0.783061 0.154380 27.465860 
0.510067 0.662949 0.548024 27.427956 
0.456428 0.593233 0.663135 28.924511 
0.433508 0.563443 0.703279 30.674040 
0.332033 0.431553 0.838759 31.862400 
0.148380 0.192853 0.969944 30.011126 
0.395260 0.519080 -0.757843 26.465265 
0.476730 0.626072 -0.617059 26.316721 
0.593135 0.778943 -0.203567 26.892376 
0.597592 0.784796 -0.164252 26.961660 
0.605813 0.795592 0.005000 27.369740 
0.602159 0.790793 0.109778 27.406050 
0.583872 0.766778 0.266731 27.544693 
0.570122 0.748721 0.338197 27.673431 
0.551926 0.724824 0.412321 27.678383 
0.196768 0.258408 0.945784 30.742847 
0.155183 0.205924 -0.966185 26.995001 
0.362205 0.480638 -0.798621 26.811871 
0.406164 0.538970 -0.737931 26.514780 
0.496716 0.659130 -0.564642 26.465265 
0.535207 0.710208 -0.457338 26.093903 
0.557779 0.740160 -0.375559 26.065020 
0.596359 0.791354 -0.134590 27.025444 
0.600752 0.797184 -0.059964 26.861385 
0.574955 0.762952 0.295520 27.391903 
0.537933 0.713824 0.448423 27.579353 
0.260466 0.349252 -0.900100 26.910900 
0.328025 0.439841 -0.836026 26.811871 
0.503317 0.674885 -0.539632 26.576132 
0.560557 0.751636 -0.347590 26.462790 
0.594541 0.797205 -0.104807 26.589052 
0.597565 0.801259 -0.029996 26.836628 
0.597468 0.801129 0.034993 27.118668 
0.556289 0.745913 0.366273 27.623917 
0.526075 0.705400 0.475032 27.166727 
0.490013 0.657046 0.572867 27.356535 
0.472284 0.633274 0.613117 27.554596 
0.394560 0.529056 0.751280 31.251715 
0.242567 0.328669 -0.912764 27.025324 
0.340567 0.461454 -0.819192 26.786697 
0.509323 0.690112 -0.514136 26.743385 
0.562732 0.762479 -0.319309 26.349730 
0.584225 0.791600 0.179030 27.191748 
0.579506 0.785206 0.218230 27.319399 
0.513845 0.696239 0.501213 27.146097 
0.456084 0.617975 0.640385 27.901199 
0.305709 0.414223 0.857299 31.664341 
0.514734 0.704792 -0.488177 26.731285 
0.537320 0.735717 -0.412321 25.598753 
0.565161 0.773838 -0.285952 26.449766 
0.570716 0.781444 -0.252245 26.641113 
0.588543 0.805853 0.064954 27.268250 
0.584422 0.800210 0.134590 27.060705 
0.501261 0.686344 0.526943 26.940945 
0.431541 0.590881 0.681639 29.089560 
0.408789 0.559728 0.720831 30.674040 
0.187475 0.259410 -0.947396 27.025661 
0.469822 0.650096 -0.597195 26.168175 
0.570979 0.790068 -0.223106 26.690424 
0.575748 0.796667 -0.183947 26.622087 
0.567534 0.785301 0.247404 27.272087 
0.555080 0.768068 0.319309 27.138016 
0.538358 0.744930 0.394019 27.678383 
0.352520 0.487785 0.798621 32.159489 
0.333532 0.461511 0.822049 31.904938 
0.265691 0.367638 0.891207 31.664341 
0.239269 0.331078 0.912764 30.983599 
0.212248 0.293690 0.932039 30.872101 
0.087384 0.122196 -0.988652 26.989944 
0.221578 0.309850 -0.924606 27.133718 
0.403171 0.563787 -0.720831 26.415751 
0.429555 0.600682 -0.674288 26.415751 
0.574710 0.803664 -0.154380 26.656691 
0.579823 0.810814 -0.079915 26.846830 
0.581676 0.813405 -0.005000 26.992863 
0.579060 0.809748 0.094857 26.985172 
0.559030 0.781737 0.276356 26.821423 
0.526279 0.735939 0.425939 27.835180 
0.370620 0.518269 0.770739 31.466280 
0.284369 0.397656 0.872355 30.971130 
0.106701 0.150797 -0.982789 26.992064 
0.126500 0.178778 -0.975723 26.995070 
0.412656 0.583192 -0.699716 26.415751 
0.438036 0.619061 -0.651834 26.217690 
0.517568 0.731460 -0.443948 25.920601 
0.573102 0.809945 -0.124675 26.687103 
0.576887 0.815294 -0.049979 26.812037 
0.541593 0.765414 0.347590 27.264111 
0.481559 0.680571 0.552199 27.371883 
0.465016 0.657191 0.593177 27.802170 
0.164437 0.234875 -0.958016 27.026251 
0.199778 0.285355 -0.937369 26.836628 
0.290327 0.414691 -0.862404 26.861385 
0.365419 0.521949 -0.770739 26.727989 
0.445953 0.636981 -0.628793 26.415751 
0.470085 0.671449 -0.572867 26.613810 
0.528247 0.754525 -0.389418 25.763401 
0.573341 0.818936 0.024997 26.482836 
0.566195 0.808728 0.159318 26.808287 
0.562088 0.802862 0.198669 26.863966 
0.511332 0.730365 0.452886 27.525829 
0.431176 0.615873 0.659385 28.099260 
0.375806 0.542538 -0.751280 26.465265 
0.476296 0.687613 -0.548024 26.291962 
0.530883 0.766419 -0.361615 26.028660 
0.537763 0.776351 -0.328769 26.147383 
0.499710 0.721416 0.479426 26.960415 
0.444548 0.641779 0.624897 27.604111 
0.406803 0.587289 0.699716 29.683741 
0.384286 0.554781 0.737931 30.822584 
0.258933 0.377836 -0.888928 26.564295 
0.346950 0.506270 -0.789504 26.630316 
0.481932 0.703235 -0.522687 26.323200 
0.497446 0.725874 -0.475032 26.525570 
0.539209 0.786815 -0.300293 26.418091 
0.544819 0.795001 -0.266731 26.321274 
0.553463 0.807613 -0.203567 26.263414 
0.564445 0.823638 0.054972 26.802265 
0.561234 0.818954 0.119712 26.948961 
0.550413 0.803164 0.227978 27.047028 
0.539209 0.786815 0.300293 26.811871 
0.523919 0.764503 0.375559 27.246763 
0.487744 0.711717 0.505533 27.095585 
0.305433 0.445688 0.841471 31.466280 
0.298463 0.440222 -0.846832 26.762356 
0.330970 0.488169 -0.807558 26.712841 
0.508906 0.750618 -0.421410 25.268787 
0.545084 0.803978 -0.237703 26.490023 
0.552597 0.815060 -0.174108 26.446012 
0.558365 0.823567 -0.099833 26.576674 
0.560993 0.827443 -0.024997 26.589052 
0.542307 0.799883 0.257081 27.033669 
0.512396 0.755765 0.407760 27.847746 
0.475453 0.701275 0.531186 27.112333 
0.551177 0.821782 -0.144492 26.438606 
0.555658 0.828463 -0.069943 26.514780 
0.555012 0.827499 0.084898 26.772760 
0.526058 0.784330 0.328769 26.841372 
0.456562 0.680716 0.572867 27.752655 
0.307957 0.464151 -0.830497 26.762356 
0.438447 0.660825 -0.609159 26.415751 
0.552856 0.833262 0.005000 26.527159 
0.543931 0.819809 0.179030 26.881418 
0.497824 0.750317 0.434966 27.704540 
0.406403 0.612528 0.677972 27.752655 
0.360709 0.543658 0.757843 31.614824 
0.341496 0.514700 0.786425 32.109974 
0.323836 0.488083 0.810497 32.246677 
0.238382 0.359287 0.902268 30.954624 
0.150552 0.226911 0.962209 30.186117 
0.372317 0.567291 -0.734548 26.465265 
0.399595 0.608854 -0.685289 26.217690 
0.474794 0.723433 -0.501213 26.356771 
0.489194 0.745374 -0.452886 26.122553 
0.542932 0.827253 0.144492 26.853407 
0.436803 0.665547 0.605186 27.653625 
0.419661 0.639428 0.644218 27.356535 
0.382276 0.582465 0.717356 29.980829 
0.211544 0.322324 0.922690 30.946373 
0.120167 0.183095 0.975723 29.979418 
0.071562 0.109038 0.991458 30.725443 
0.263814 0.406382 -0.874789 26.774734 
0.381307 0.587370 -0.713864 26.762356 
0.407560 0.627811 -0.663135 26.366236 
0.441572 0.680203 -0.585097 26.465265 
0.499375 0.769243 -0.398609 25.747297 
0.510551 0.786459 -0.347590 25.802048 
0.544169 0.838245 0.034993 26.465265 
0.532541 0.820332 0.208460 26.613810 
0.522539 0.804925 0.281157 27.007072 
0.508633 0.783505 0.356949 27.653625 
0.482971 0.743975 0.461779 27.655090 
0.280320 0.431809 0.857299 31.763371 
0.166518 0.256507 0.952090 30.426466 
0.228079 0.355212 -0.906534 26.964815 
0.414981 0.646295 -0.640385 26.217690 
0.447451 0.696863 -0.560509 26.663324 
0.512018 0.797421 -0.319309 26.527494 
0.517741 0.806334 -0.285952 26.118660 
0.527280 0.821189 -0.218230 26.289110 
0.536417 0.835420 -0.119712 26.465265 
0.539755 0.840619 -0.044985 26.811871 
0.537037 0.836385 0.109778 26.712841 
0.524816 0.817353 0.237703 27.207991 
0.497651 0.775046 0.389418 27.660686 
0.471546 0.734389 0.488177 27.242760 
0.254660 0.396609 0.881958 31.119675 
0.183133 0.285213 0.940806 30.822584 
0.027434 0.042725 0.998710 30.902037 
0.345684 0.544338 -0.764329 26.553593 
0.452774 0.712970 -0.535416 26.306772 
0.518070 0.815790 -0.257081 27.125465 
0.526441 0.828971 -0.188859 26.382740 
0.533918 0.840745 -0.089879 26.399244 
0.534956 0.842379 0.064954 26.712841 
0.509711 0.802626 0.309816 27.092455 
0.459808 0.724045 0.514136 27.047773 
0.448418 0.706110 0.548024 27.453127 
0.300836 0.473717 0.827702 31.822130 
0.466752 0.743165 -0.479426 26.449930 
0.480063 0.764359 -0.430458 25.637848 
0.525067 0.836016 -0.159318 26.334734 
0.531801 0.846737 -0.014999 26.514780 
0.483443 0.769741 0.416871 27.725040 
0.381828 0.607950 0.696135 27.851685 
0.358940 0.571506 0.737931 30.129375 
0.488997 0.787297 -0.375559 25.821569 
0.520454 0.837943 0.164252 26.872747 
0.429419 0.691374 0.581035 27.406050 
0.411917 0.663195 0.624897 27.505079 
0.206599 0.336370 -0.918788 27.025936 
0.267192 0.435023 -0.859862 26.712841 
0.302301 0.492185 -0.816314 26.743921 
0.317066 0.516224 -0.795602 26.712841 
0.523307 0.852012 0.014999 26.564295 
0.518604 0.844355 0.134590 26.514780 
0.505097 0.822363 0.261909 27.009930 
0.492527 0.801898 0.338197 27.108959 
0.393470 0.640620 0.659385 27.719645 
0.333463 0.542922 0.770739 31.070160 
0.190516 0.313692 -0.930216 27.158476 
0.406881 0.669944 -0.620986 26.316721 
0.445236 0.733096 -0.514136 26.215706 
0.518003 0.852909 -0.064954 26.514780 
0.516998 0.851255 0.089879 26.861385 
0.509261 0.838515 0.193767 26.762356 
0.482069 0.793743 0.370920 27.207991 
0.465140 0.765869 0.443948 27.703140 
0.312412 0.514397 0.798621 31.350744 
0.125270 0.208606 -0.969944 26.989584 
0.278158 0.463201 -0.841471 26.762356 
0.343622 0.572215 -0.744643 26.613810 
0.367797 0.612472 -0.699716 26.564295 
0.380178 0.633088 -0.674288 26.663324 
0.412934 0.687636 -0.597195 26.465265 
0.457825 0.762390 -0.457338 26.217690 
0.470075 0.782790 -0.407760 25.623510 
0.482718 0.803843 -0.347590 26.019630 
0.489488 0.815117 -0.309816 26.712841 
0.494769 0.823912 -0.276356 26.465265 
0.500063 0.832727 -0.237703 26.564295 
0.510135 0.849499 -0.134590 26.069145 
0.514298 0.856431 0.044985 26.762356 
0.501842 0.835690 0.223106 26.719900 
0.492580 0.820266 0.290740 27.009930 
0.454242 0.756423 0.470626 27.851685 
0.275988 0.459588 0.844162 31.862400 
0.158556 0.267050 -0.950549 26.955683 
0.229295 0.386194 -0.893464 27.025236 
0.352007 0.592874 -0.724287 26.564295 
0.387163 0.652087 -0.651834 26.333225 
0.418452 0.704784 -0.572867 26.481770 
0.499310 0.840972 -0.208460 26.227961 
0.507714 0.855127 -0.104807 26.415751 
0.510213 0.859336 -0.034993 26.613810 
0.468214 0.788598 0.398609 27.653625 
0.443044 0.746205 0.496880 27.108959 
0.432546 0.728523 0.531186 27.505079 
0.357514 0.602149 0.713864 28.148775 
0.251806 0.424108 0.869900 31.565310 
0.208543 0.351243 0.912764 30.709793 
0.086773 0.146148 0.985450 30.486591 
0.423434 0.721369 -0.548024 26.444633 
0.498042 0.848471 -0.179030 26.440508 
0.420639 0.716607 0.556361 27.195292 
0.404520 0.689147 0.601198 27.257505 
0.227361 0.387335 0.893464 30.748312 
0.170118 0.293163 -0.940806 27.133718 
0.315903 0.544394 -0.777072 26.631147 
0.436802 0.752738 -0.492535 26.492329 
0.501896 0.864914 -0.005000 26.861385 
0.498587 0.859212 0.114747 26.762356 
0.495885 0.854555 0.154380 26.849176 
0.475628 0.819646 0.319309 27.059444 
0.385488 0.664308 0.640385 27.307020 
0.368942 0.635796 0.677972 27.703140 
0.331247 0.570836 0.751280 30.277920 
0.289903 0.499588 0.816314 31.722126 
0.448036 0.781069 -0.434966 25.640015 
0.459256 0.800629 -0.384808 25.722540 
0.496352 0.865299 0.069943 26.861385 
0.482103 0.840457 0.247404 26.861385 
0.465675 0.811819 0.352274 26.910900 
0.450178 0.784803 0.425939 27.307020 
0.182615 0.318356 0.930216 30.773069 
0.123485 0.215273 0.968715 30.055639 
0.134312 0.236885 -0.962209 26.963331 
0.234644 0.413840 -0.879590 26.811871 
0.465809 0.821543 -0.328769 26.217690 
0.476650 0.840663 -0.257081 26.712841 
0.491650 0.867118 -0.079915 26.514780 
0.493074 0.869628 0.024997 26.712841 
0.484811 0.855056 0.183947 26.960415 
0.378592 0.675569 -0.632673 26.300215 
0.415493 0.741415 -0.526943 26.242447 
0.466309 0.832094 -0.300293 26.564295 
0.475998 0.849383 -0.227978 26.465265 
0.483011 0.861897 -0.154380 26.490149 
0.477616 0.852271 0.213347 26.999441 
0.469833 0.838382 0.276356 27.059444 
0.452162 0.806849 0.380188 27.802170 
0.435863 0.777764 0.452886 27.307020 
0.333519 0.595139 0.731146 27.678383 
0.303888 0.542265 0.783327 30.995888 
0.271888 0.490904 -0.827702 26.811871 
0.285755 0.515940 -0.807558 26.712841 
0.316109 0.570745 -0.757843 26.992342 
0.384235 0.693750 -0.609159 26.564295 
0.427494 0.771855 -0.470626 25.953609 
0.452587 0.817161 -0.356949 26.069145 
0.474846 0.857351 -0.198669 26.625586 
0.480724 0.867964 -0.124675 26.654831 
0.483899 0.873696 -0.049979 26.712841 
0.425192 0.767699 0.479426 27.059444 
0.415563 0.750314 0.514136 27.159185 
0.395730 0.714504 0.576959 27.307020 
0.048313 0.088269 -0.994924 27.025484 
0.337933 0.617413 -0.710353 26.514780 
0.349661 0.638840 -0.685289 26.399244 
0.389363 0.711377 -0.585097 26.415751 
0.437412 0.799164 -0.412321 25.895844 
0.477959 0.873245 0.094857 26.811871 
0.475756 0.869219 0.134590 26.811871 
0.404217 0.738516 0.539632 27.055620 
0.377818 0.690284 0.617059 27.158476 
0.360960 0.659484 0.659385 27.554596 
0.344686 0.629752 0.696135 27.653625 
0.247177 0.451599 0.857299 31.862400 
0.198663 0.367312 -0.908633 27.166746 
0.246952 0.456594 -0.854714 26.688082 
0.321060 0.593614 -0.737931 26.712841 
0.356085 0.658373 -0.663135 26.564295 
0.393977 0.728431 -0.560509 26.316721 
0.475637 0.879414 -0.019999 26.712841 
0.475138 0.878491 0.049979 26.712841 
0.453056 0.837663 0.305059 27.207991 
0.434386 0.803144 0.407760 27.653625 
0.284409 0.525849 0.801620 31.070160 
0.264994 0.489952 0.830497 31.521811 
0.096314 0.180225 -0.978899 27.002478 
0.406665 0.760959 -0.505533 26.250513 
0.452973 0.847610 -0.276356 26.415751 
0.464927 0.869979 0.164252 26.898521 
0.457819 0.856679 0.237703 26.980591 
0.444347 0.831470 0.333487 27.207991 
0.303925 0.568710 0.764329 30.178890 
0.222150 0.415692 0.881958 31.515795 
0.153086 0.286457 0.945784 30.178890 
0.135137 0.252871 0.958016 30.079861 
0.286566 0.542737 -0.789504 26.663324 
0.417337 0.790409 -0.448423 25.821569 
0.430959 0.816209 -0.384808 26.003124 
0.442470 0.838011 -0.319309 26.135164 
0.452398 0.856813 -0.247404 26.514780 
0.459781 0.870797 -0.174108 26.465265 
0.464580 0.879886 -0.099833 26.663324 
0.466889 0.884259 0.010000 26.564295 
0.458064 0.867544 0.193767 26.935658 
0.435315 0.824460 0.361615 27.207991 
0.420430 0.796268 0.434966 27.257505 
0.451338 0.865257 -0.218230 26.341888 
0.457632 0.877323 -0.144492 26.421083 
0.461353 0.884456 -0.069943 26.712841 
0.445730 0.854505 0.266731 26.861385 
0.197324 0.378288 0.904412 30.862293 
0.174481 0.338615 -0.924606 26.927404 
0.385630 0.748390 -0.539632 27.158476 
0.456759 0.886429 0.074930 26.729345 
0.455021 0.883057 0.114747 26.861385 
0.406285 0.788475 0.461779 27.505079 
0.398635 0.773628 0.492535 26.910900 
0.379330 0.736165 0.560509 27.388823 
0.368760 0.715651 0.593177 27.158476 
0.353267 0.685582 0.636537 27.851685 
0.336704 0.653440 0.677972 27.901199 
0.320763 0.622503 0.713864 28.099260 
0.305729 0.593327 0.744643 27.901199 
0.178708 0.346817 0.920751 30.740061 
0.289009 0.567834 -0.770739 26.878574 
0.346929 0.681633 -0.644218 26.415751 
0.396976 0.779962 -0.483807 25.821569 
0.423715 0.832498 -0.356949 26.514780 
0.453233 0.890494 -0.039989 26.564295 
0.417790 0.820856 0.389418 27.158476 
0.387882 0.762096 0.518418 26.861385 
0.090470 0.177751 0.979908 29.918936 
0.076338 0.151860 -0.985450 27.023687 
0.199713 0.397289 -0.895699 26.762356 
0.221526 0.440681 -0.869900 26.861385 
0.352041 0.700317 -0.620986 26.514780 
0.366841 0.729758 -0.576959 26.366236 
0.406355 0.808363 -0.425939 25.772055 
0.429075 0.853559 -0.295520 26.960415 
0.448859 0.892917 0.034993 26.745850 
0.444421 0.884088 0.144492 26.850145 
0.438309 0.871929 0.218230 26.750397 
0.429075 0.853559 0.295520 26.745850 
0.259424 0.516073 0.816314 31.637173 
0.057994 0.116820 -0.991458 27.035944 
0.240252 0.483948 -0.841471 26.910900 
0.256840 0.517363 -0.816314 26.712841 
0.293469 0.591146 -0.751280 26.649446 
0.306593 0.617583 -0.724287 26.861385 
0.317676 0.639906 -0.699716 26.564295 
0.328369 0.661445 -0.674288 26.613810 
0.428552 0.863248 -0.266731 26.316721 
0.436234 0.878723 -0.193767 26.366236 
0.441464 0.889257 -0.119712 26.712841 
0.444639 0.895654 -0.010000 26.811871 
0.437870 0.882018 0.174108 26.886143 
0.420669 0.847369 0.324043 27.356535 
0.404182 0.814159 0.416871 27.125465 
0.278144 0.560276 0.780209 30.277920 
0.238378 0.480173 0.844162 31.466280 
0.376408 0.767828 -0.518418 26.935644 
0.403696 0.823493 -0.398609 26.168175 
0.415708 0.847996 -0.328769 26.465265 
0.427561 0.872175 -0.237703 26.316721 
0.434199 0.885716 -0.164252 26.663324 
0.438396 0.894277 -0.089879 26.613810 
0.426493 0.869997 0.247404 27.009930 
0.219020 0.446774 0.867423 31.416765 
0.386448 0.798385 -0.461779 25.524481 
0.433718 0.896042 0.094857 26.910900 
0.407754 0.842401 0.352274 26.811871 
0.366801 0.757795 0.539632 27.062796 
0.344186 0.711072 0.613117 27.207991 
0.328981 0.679660 0.655617 27.703140 
0.312781 0.646192 0.696135 27.653625 
0.127749 0.267325 -0.955101 26.907269 
0.152214 0.318518 -0.935616 27.009930 
0.430401 0.900644 -0.059964 26.679831 
0.430401 0.900644 0.059964 26.811871 
0.386357 0.808479 0.443948 27.125465 
0.379422 0.793967 0.475032 27.075951 
0.352174 0.736948 0.576959 27.158476 
0.259497 0.543016 0.798621 30.872101 
0.152214 0.318518 0.935616 30.756565 
0.138578 0.293750 -0.945784 26.960415 
0.256779 0.544307 -0.798621 26.440508 
0.340944 0.722716 -0.601198 26.069145 
0.354529 0.751513 -0.556361 26.465265 
0.396224 0.839896 -0.370920 26.168175 
0.426612 0.904310 0.014999 26.663324 
0.423331 0.897356 0.124675 26.910900 
0.418155 0.886384 0.198669 27.185684 
0.410044 0.869190 0.276356 27.257505 
0.369199 0.782610 0.501213 27.037394 
0.292632 0.620308 0.727726 28.643925 
0.278369 0.590072 0.757843 27.826927 
0.193531 0.410238 0.891207 31.193947 
0.318749 0.684518 -0.655617 26.118660 
0.366335 0.786708 -0.496880 25.850870 
0.402011 0.863323 -0.305059 26.960415 
0.412413 0.885662 -0.213347 26.415657 
0.418002 0.897665 -0.139543 26.523737 
0.421942 0.906126 -0.029996 26.415751 
0.417072 0.895666 0.154380 26.852802 
0.402011 0.863323 0.305059 26.861385 
0.390434 0.838462 0.380188 27.059444 
0.044577 0.095729 0.994409 31.005400 
0.168674 0.367014 -0.914795 27.008577 
0.196824 0.428265 -0.881958 26.811871 
0.214986 0.467782 -0.857299 26.762356 
0.323393 0.703663 -0.632673 26.415751 
0.375109 0.816190 -0.439462 25.871084 
0.401331 0.873247 -0.276356 26.613810 
0.410469 0.893129 -0.183947 26.390993 
0.415071 0.903142 -0.109778 26.465265 
0.406598 0.884706 0.227978 26.712841 
0.104507 0.230424 -0.967462 27.004185 
0.258368 0.569666 -0.780209 26.863985 
0.278755 0.614616 -0.737931 26.613810 
0.376301 0.829692 -0.412321 25.821569 
0.388004 0.855496 -0.342898 26.217690 
0.400206 0.882398 -0.247404 26.415751 
0.389401 0.858576 0.333487 27.009930 
0.377148 0.831559 0.407760 26.910900 
0.319871 0.705271 0.632673 26.960415 
0.305022 0.672531 0.674288 27.480322 
0.231788 0.511061 0.827702 31.371895 
0.094485 0.208327 0.973485 29.977247 
0.229230 0.512214 -0.827702 27.009930 
0.264961 0.592055 -0.761095 26.852491 
0.286058 0.639195 -0.713864 26.762356 
0.296086 0.661604 -0.688921 26.663324 
0.345004 0.770910 -0.535416 26.415751 
0.407181 0.909845 -0.079915 26.564295 
0.408161 0.912034 0.039989 26.547791 
0.407181 0.909845 0.079915 26.762356 
0.348246 0.778154 0.522687 27.059444 
0.339429 0.758453 0.556361 27.409990 
0.327646 0.732124 0.597195 27.307020 
0.328741 0.744532 -0.581035 26.415751 
0.355436 0.804991 -0.475032 25.871084 
0.403913 0.914784 -0.005000 26.844879 
0.397393 0.900015 0.179030 27.183233 
0.390343 0.884049 0.257081 27.108959 
0.359202 0.813520 0.457338 27.108959 
0.284296 0.643874 0.710353 27.009930 
0.209674 0.474869 0.854714 31.243464 
0.166837 0.377853 0.910710 30.647360 
0.106100 0.240296 0.964884 29.956806 
0.368589 0.846206 -0.384808 26.366236 
0.394239 0.905093 -0.159318 26.696264 
0.398840 0.915657 -0.049979 26.564295 
0.396926 0.911262 0.109778 27.108959 
0.382665 0.878521 0.285952 26.910900 
0.372315 0.854761 0.361615 27.158476 
0.349492 0.802363 0.483807 27.604111 
0.252898 0.580602 0.773915 28.220716 
0.122125 0.280374 0.952090 30.228405 
0.170207 0.396160 -0.902268 27.082903 
0.311850 0.725836 -0.613117 26.118660 
0.374086 0.870690 -0.319309 27.455564 
0.384800 0.895629 -0.223106 26.712841 
0.391420 0.911035 -0.129634 26.678045 
0.390888 0.909799 0.139543 27.060612 
0.386078 0.898603 0.208460 27.073044 
0.356306 0.829308 0.430458 27.108959 
0.264948 0.616670 0.741297 28.396351 
0.231222 0.538174 0.810497 30.538778 
0.189529 0.441133 0.877200 30.896858 
0.228529 0.539323 -0.810497 26.993425 
0.290731 0.686120 -0.666870 26.613810 
0.324193 0.765089 -0.556361 26.415751 
0.334636 0.789736 -0.514136 25.859257 
0.373298 0.880976 -0.290740 26.762356 
0.382757 0.903300 -0.193767 26.663324 
0.370346 0.874009 0.314567 26.415751 
0.359354 0.848067 0.389418 27.026436 
0.295876 0.698262 0.651834 27.207991 
0.148618 0.350737 0.924606 30.488359 
0.145079 0.347205 -0.926499 27.059444 
0.190161 0.455096 -0.869900 26.910900 
0.206685 0.494643 -0.844162 26.514780 
0.294880 0.705712 -0.644218 26.366236 
0.343738 0.822641 -0.452886 25.970116 
0.360145 0.861907 -0.356949 26.415751 
0.372085 0.890481 -0.261909 26.415751 
0.383617 0.918080 -0.099833 26.514780 
0.385466 0.922505 0.019999 26.762356 
0.384849 0.921030 0.059964 26.564295 
0.314901 0.753629 0.576959 27.505079 
0.303390 0.726080 0.617059 27.108959 
0.235101 0.562648 0.792563 29.514538 
0.344642 0.836539 -0.425939 26.069145 
0.380806 0.924317 -0.024997 26.580801 
0.370007 0.898105 0.237703 26.960415 
0.328665 0.797757 0.505533 27.455564 
0.320701 0.778427 0.539632 27.088572 
0.276108 0.670188 0.688921 27.802170 
0.057225 0.138899 0.988652 30.971130 
0.084246 0.207427 -0.974616 27.049053 
0.229462 0.564970 -0.792563 26.815149 
0.249760 0.614946 -0.747971 26.990910 
0.328411 0.808597 -0.488177 25.958847 
0.375376 0.924230 -0.069943 26.597305 
0.374774 0.922749 0.089879 27.158476 
0.371186 0.913916 0.164252 27.177914 
0.362664 0.892933 0.266731 26.762356 
0.353483 0.870328 0.342898 26.861385 
0.235368 0.587926 -0.773915 26.842325 
0.254910 0.636739 -0.727726 26.465265 
0.264218 0.659990 -0.703279 26.465265 
0.299213 0.747404 -0.593177 26.390993 
0.313900 0.784090 -0.535416 26.121656 
0.340857 0.851426 -0.398609 26.267204 
0.366302 0.914986 -0.169182 26.514780 
0.368987 0.921693 0.119712 26.960415 
0.338597 0.845780 0.412321 27.158476 
0.332198 0.829796 0.448423 27.274010 
0.256259 0.640109 0.724287 27.901199 
0.202370 0.505500 0.838759 31.020645 
0.163596 0.408647 0.897911 31.268221 
0.346004 0.876965 -0.333487 27.406050 
0.356494 0.903554 -0.237703 26.564295 
0.363423 0.921114 -0.139543 26.605049 
0.360058 0.912586 0.193767 26.935658 
0.350621 0.888669 0.295520 26.795364 
0.340832 0.863858 0.370920 26.861385 
0.322960 0.818561 0.475032 27.207991 
0.239453 0.606908 0.757843 28.398594 
0.122670 0.310913 0.942489 30.426466 
0.165977 0.426917 -0.888928 27.108959 
0.282895 0.727649 -0.624897 26.415751 
0.345085 0.887612 -0.305059 26.712841 
0.354397 0.911563 -0.208460 26.778219 
0.362358 0.932039 0.000000 26.960415 
0.362068 0.931294 0.039989 26.811871 
0.290646 0.747585 0.597195 27.141970 
0.279467 0.718831 0.636537 27.455564 
0.270020 0.694532 0.666870 27.406050 
0.181868 0.467792 0.864925 30.550253 
0.200726 0.524041 -0.827702 27.216242 
0.261720 0.683280 -0.681639 26.613810 
0.294203 0.768085 -0.568762 26.366236 
0.307712 0.803353 -0.509841 25.808800 
0.316442 0.826144 -0.466208 26.316721 
0.332177 0.867223 -0.370920 26.762356 
0.343763 0.897471 -0.276356 26.564295 
0.355531 0.928195 -0.109778 26.514780 
0.357331 0.932894 -0.044985 26.663324 
0.296223 0.773358 0.560509 27.397285 
0.203676 0.531744 0.822049 30.481804 
0.097829 0.259279 -0.960835 27.044752 
0.119655 0.317123 -0.940806 27.092455 
0.181741 0.481673 -0.857299 26.985172 
0.265402 0.703401 -0.659385 26.415751 
0.317104 0.840427 -0.439462 25.871084 
0.352155 0.933325 0.069943 26.795364 
0.349315 0.925798 0.144492 26.984213 
0.344121 0.912033 0.223106 27.047066 
0.333971 0.885132 0.324043 27.158476 
0.300958 0.797636 0.522687 27.554596 
0.222195 0.588888 0.777072 28.124201 
0.108184 0.291122 -0.950549 26.992144 
0.140700 0.378621 -0.914795 27.145399 
0.347223 0.934371 -0.079915 26.564295 
0.346597 0.932686 0.099833 26.795364 
0.337073 0.907058 0.252245 26.910900 
0.320157 0.861538 0.394019 27.059444 
0.314413 0.846080 0.430458 27.207991 
0.302293 0.813467 0.496880 27.207991 
0.247637 0.666389 0.703279 27.769159 
0.206849 0.556627 0.804599 29.325548 
0.313075 0.855556 -0.412321 25.970116 
0.337782 0.923075 -0.183947 26.502401 
0.338397 0.924756 0.174108 26.948036 
0.321617 0.878900 0.352274 26.894396 
0.160453 0.438477 0.884303 31.218704 
0.061792 0.168862 0.983701 30.231707 
0.065941 0.183032 -0.980893 27.086344 
0.198535 0.551070 -0.810497 27.080938 
0.219854 0.610244 -0.761095 26.773277 
0.269829 0.748960 -0.605186 26.366236 
0.283516 0.786949 -0.548024 26.162619 
0.295813 0.821083 -0.488177 26.125559 
0.317811 0.882143 -0.347590 26.663324 
0.327986 0.910383 -0.252245 26.613810 
0.334883 0.929527 -0.154380 26.717525 
0.338878 0.940618 -0.019999 26.514780 
0.338878 0.940618 0.019999 26.663324 
0.325273 0.902855 0.281157 26.910900 
0.301422 0.836652 0.457338 27.356535 
0.266722 0.740336 0.617059 27.505079 
0.228746 0.634927 0.737931 27.604111 
0.136907 0.380009 0.914795 30.680712 
0.224333 0.632577 -0.741297 26.807249 
0.232866 0.656638 -0.717356 26.597305 
0.316741 0.893150 -0.319309 26.960415 
0.325813 0.918733 -0.223106 26.601847 
0.272029 0.767071 0.581035 27.257505 
0.253473 0.714748 0.651834 27.653625 
0.142082 0.407095 -0.902268 26.960415 
0.159654 0.457444 -0.874789 27.084202 
0.200939 0.575733 -0.792563 26.903452 
0.253090 0.725157 -0.640385 26.477644 
0.304147 0.871446 -0.384808 26.564295 
0.315287 0.903363 -0.290740 27.009930 
0.326950 0.936782 -0.124675 26.514780 
0.329023 0.942721 -0.054972 26.762356 
0.329109 0.942968 0.049979 26.712841 
0.326950 0.936782 0.124675 27.059444 
0.322621 0.924379 0.203567 26.976919 
0.276532 0.792322 0.543835 27.039721 
0.241107 0.690823 0.681639 27.752655 
0.173862 0.498151 0.849481 30.773069 
0.119405 0.342119 0.932039 30.253162 
0.175488 0.511009 -0.841471 27.108959 
0.233175 0.678988 -0.696135 26.737598 
0.264345 0.769753 -0.581035 26.366236 
0.276897 0.806304 -0.522687 25.846327 
0.288093 0.838906 -0.461779 25.772055 
0.323757 0.942759 0.079915 26.910900 
0.315869 0.919788 0.232843 26.778360 
0.308815 0.899248 0.309816 27.059444 
0.301021 0.876551 0.375559 27.059444 
0.295902 0.861646 0.412321 27.059444 
0.093124 0.271171 0.958016 29.782770 
0.236357 0.699622 -0.674288 26.712841 
0.288200 0.853080 -0.434966 26.118660 
0.318620 0.943124 -0.094857 26.646820 
0.316226 0.936038 0.154380 26.790087 
0.280882 0.831418 0.479426 26.943911 
0.274521 0.812590 0.514136 27.166727 
0.208821 0.618117 0.757843 28.030432 
0.176951 0.523780 0.833272 30.185095 
0.019159 0.057659 -0.998152 27.118704 
0.309037 0.930068 -0.198669 26.597305 
0.315322 0.948985 0.000000 26.762356 
0.304315 0.915858 0.261909 26.960415 
0.296742 0.893066 0.338197 26.960415 
0.219687 0.661164 0.717356 27.835180 
0.193528 0.582435 0.789504 28.028528 
0.065978 0.198564 0.977865 30.334038 
0.113985 0.348864 -0.930216 27.141970 
0.283581 0.867936 -0.407760 26.069145 
0.289556 0.886223 -0.361615 26.415751 
0.299322 0.916112 -0.266731 26.580801 
0.306097 0.936847 -0.169182 26.745850 
0.310434 0.950122 -0.029996 26.564295 
0.278976 0.853841 0.439462 27.108959 
0.248179 0.759584 0.601198 27.381292 
0.240514 0.736124 0.632673 27.505079 
0.179390 0.549046 0.816314 29.446175 
0.151831 0.464697 0.872355 30.773069 
0.133912 0.409855 0.902268 30.995888 
0.172878 0.538216 -0.824886 27.002804 
0.193671 0.602949 -0.773915 26.838020 
0.239706 0.746269 -0.620986 26.366236 
0.254116 0.791131 -0.556361 26.118660 
0.264631 0.823867 -0.501213 26.031368 
0.288310 0.897588 -0.333487 26.679831 
0.297052 0.924802 -0.237703 26.465265 
0.305679 0.951662 0.029996 26.811871 
0.304133 0.946847 0.104807 26.910900 
0.300599 0.935844 0.183947 26.960415 
0.252402 0.785794 0.564642 27.504620 
0.075896 0.236285 0.968715 29.759729 
0.074714 0.236662 -0.968715 27.107424 
0.286703 0.908152 -0.305059 26.910900 
0.298107 0.944277 -0.139543 26.613810 
0.300315 0.951272 -0.069943 26.514780 
0.300511 0.951892 0.059964 26.663324 
0.294121 0.931652 0.213347 26.933130 
0.288048 0.912414 0.290740 26.910900 
0.276698 0.876463 0.394019 26.910900 
0.225338 0.713775 0.663135 28.024988 
0.094929 0.300694 0.948985 29.857042 
0.044509 0.143480 -0.988652 27.125517 
0.135710 0.437481 -0.888928 27.183233 
0.149983 0.483491 -0.862404 27.307020 
0.194425 0.626755 -0.754571 26.865896 
0.202129 0.651590 -0.731146 26.770607 
0.223720 0.721190 -0.655617 26.465265 
0.237646 0.766082 -0.597195 26.415751 
0.260718 0.840459 -0.475032 26.323250 
0.293585 0.946411 0.134590 27.042940 
0.276231 0.890467 0.361615 27.108959 
0.250235 0.806667 0.535416 27.463701 
0.212703 0.685677 0.696135 27.637119 
0.199953 0.644574 0.737931 27.777412 
0.022436 0.072324 0.997129 31.168989 
0.173099 0.568029 -0.804599 26.777988 
0.205172 0.673278 -0.710353 26.737598 
0.246976 0.810459 -0.531186 26.076614 
0.260550 0.855003 -0.448423 26.019630 
0.269055 0.882911 -0.384808 26.316721 
0.289740 0.950789 -0.109778 26.712841 
0.282797 0.928005 0.242556 27.158476 
0.276242 0.906495 0.319309 27.009930 
0.258561 0.848473 0.461779 27.158476 
0.253692 0.832496 0.492535 27.070309 
0.207822 0.694404 -0.688921 26.613810 
0.280114 0.935959 -0.213347 26.426468 
0.286701 0.957968 -0.010000 26.811871 
0.260013 0.868796 0.421410 27.207991 
0.182681 0.610401 0.770739 27.883276 
0.255666 0.870085 -0.421410 26.366236 
0.270549 0.920735 -0.281157 26.564295 
0.277111 0.943066 -0.183947 26.564295 
0.281636 0.958466 -0.044985 26.465265 
0.280904 0.955974 0.084898 27.059444 
0.278093 0.946407 0.164252 27.117212 
0.228628 0.778068 0.585097 27.018183 
0.221849 0.754997 0.617059 27.207991 
0.145139 0.493936 0.857299 30.773069 
0.130385 0.443726 0.886627 30.674040 
0.108693 0.369904 0.922690 30.212383 
0.109394 0.379290 -0.918788 27.101191 
0.227142 0.787547 -0.572867 26.254826 
0.258865 0.897539 -0.356949 26.514780 
0.262168 0.908991 -0.324043 26.465265 
0.268160 0.929765 -0.252245 26.613810 
0.277065 0.960643 0.019999 26.762356 
0.271869 0.942625 0.193767 26.762356 
0.266708 0.924732 0.271547 27.009930 
0.211954 0.734887 0.644218 27.628868 
0.165672 0.574420 0.801620 27.887846 
0.089733 0.317068 -0.944148 27.042940 
0.144833 0.511761 -0.846832 27.234022 
0.210021 0.742100 -0.636537 26.539537 
0.234263 0.827758 -0.509841 26.174124 
0.269049 0.950673 -0.154380 26.613810 
0.271330 0.958735 -0.084898 26.712841 
0.271973 0.961006 0.049979 26.960415 
0.270515 0.955853 0.114747 27.009930 
0.255804 0.903873 0.342898 27.009930 
0.251865 0.889956 0.380188 27.092455 
0.233565 0.825295 0.514136 27.411821 
0.226276 0.799538 0.556361 27.144840 
0.190697 0.673820 0.713864 27.688286 
0.147131 0.519884 0.841471 29.964876 
0.165230 0.595176 -0.786425 27.037348 
0.211322 0.761203 -0.613117 26.440508 
0.260756 0.939271 0.223106 27.105097 
0.255153 0.919087 0.300293 27.009930 
0.197539 0.711557 0.674288 27.864063 
0.091925 0.331123 0.939099 30.253162 
0.076571 0.281265 -0.956570 27.135563 
0.110885 0.407309 -0.906534 27.207991 
0.127268 0.467490 -0.874789 27.529837 
0.168376 0.618487 -0.767543 26.803452 
0.194862 0.715780 -0.670587 26.440508 
0.219720 0.807089 -0.548024 25.861635 
0.229889 0.844442 -0.483807 26.173359 
0.240907 0.884915 -0.398609 26.564295 
0.260628 0.957355 -0.124675 26.681589 
0.235953 0.866717 0.439462 27.154348 
0.231148 0.849067 0.475032 27.245127 
0.173363 0.636807 0.751280 27.777412 
0.149573 0.549421 0.822049 28.475174 
0.147882 0.554126 -0.819192 27.119196 
0.172105 0.644893 -0.744643 26.811871 
0.229304 0.859221 -0.457338 26.192932 
0.245949 0.921593 -0.300293 26.787113 
0.251060 0.940742 -0.227978 26.712841 
0.257769 0.965883 -0.024997 26.844879 
0.255144 0.956046 0.144492 26.969633 
0.235440 0.882213 0.407760 27.191484 
0.106504 0.399079 0.910710 30.178890 
0.174454 0.667064 -0.724287 26.613810 
0.243509 0.931110 -0.271547 26.589052 
0.247972 0.948177 -0.198669 26.845457 
0.252561 0.965721 -0.059964 26.861385 
0.252305 0.964742 0.074930 27.034687 
0.249151 0.952686 0.174108 26.965530 
0.244834 0.936178 0.252245 27.033037 
0.213694 0.817107 0.535416 27.209715 
0.202185 0.773099 0.601198 27.084202 
0.054352 0.212155 -0.975723 27.159967 
0.176431 0.688673 -0.703279 26.663324 
0.200533 0.782748 -0.589145 26.478073 
0.224006 0.874373 -0.430458 26.316721 
0.230472 0.899611 -0.370920 26.580801 
0.233552 0.911634 -0.338197 26.390993 
0.248172 0.968703 0.005000 26.943911 
0.234784 0.916445 0.324043 27.133718 
0.231381 0.903160 0.361615 27.133718 
0.202703 0.791221 0.576959 27.281071 
0.192974 0.753246 0.628793 27.195612 
0.178168 0.695451 0.696135 28.223047 
0.169311 0.660878 0.731146 27.604111 
0.154268 0.602163 0.783327 27.819138 
0.122407 0.477797 0.869900 30.444401 
0.028114 0.112065 -0.993303 27.165281 
0.206805 0.824356 -0.526943 26.220415 
0.239821 0.955962 -0.169182 26.878721 
0.242113 0.965098 -0.099833 26.861385 
0.243180 0.969350 0.034993 26.960415 
0.241989 0.964602 0.104807 27.034687 
0.238234 0.949634 0.203567 27.161140 
0.233513 0.930818 0.281157 27.051193 
0.211165 0.841736 0.496880 27.412893 
0.183736 0.732398 0.655617 27.344156 
0.107108 0.426947 0.897911 30.624525 
0.121748 0.495796 -0.859862 27.379740 
0.142569 0.580585 -0.801620 27.133503 
0.180851 0.736482 -0.651834 26.580801 
0.029920 0.121845 0.992098 31.140070 
0.083563 0.347795 -0.933839 27.108959 
0.104926 0.436706 -0.893464 27.579353 
0.181654 0.756056 -0.628793 26.419064 
0.192813 0.802497 -0.564642 25.871546 
0.202155 0.841379 -0.501213 26.108273 
0.226355 0.942101 -0.247404 26.663324 
0.231332 0.962815 -0.139543 26.838072 
0.215176 0.895574 0.389418 27.084202 
0.211366 0.879716 0.425939 27.158476 
